0.58099997 1.90799999 3.64100003 1.000000 1.000000
3.31200004 2.35200000 2.47600007 1.000000 1.000000
3.04299998 2.26500010 2.24799991 1.000000 1.000000
2.92799997 2.24099994 2.38499999 1.000000 1.000000
2.80900002 2.21399999 2.46900010 1.000000 1.000000
2.71300006 2.20600009 2.75999999 1.000000 1.000000
2.65300012 2.23000002 3.40000010 1.000000 1.000000
2.71600008 2.36599994 5.30200005 1.000000 1.000000
2.56800008 2.30699992 5.00000000 1.000000 1.000000
2.45499992 2.28200006 5.09200001 1.000000 1.000000
2.31299996 2.23099995 4.88800001 1.000000 1.000000
2.11700010 2.13499999 4.20499992 1.000000 1.000000
2.03299999 2.13299990 4.52400017 1.000000 1.000000
1.93499994 2.11700010 4.70699978 1.000000 1.000000
1.85000002 2.11500001 5.03700018 1.000000 1.000000
1.72099996 2.07299995 4.94199991 1.000000 1.000000
1.64499998 2.07699990 5.33699989 1.000000 1.000000
1.51900005 2.04099989 5.30000019 1.000000 1.000000
1.22300005 1.87300003 3.88000011 1.000000 1.000000
1.11099994 1.84599996 3.94099998 1.000000 1.000000
0.94599998 1.77999997 3.59899998 1.000000 1.000000
0.86699998 1.78100002 3.96099997 1.000000 1.000000
0.75599998 1.75600004 4.03900003 1.000000 1.000000
3.19199991 2.63199997 3.91100001 1.000000 1.000000
3.05900002 2.58899999 3.81399989 1.000000 1.000000
2.92700005 2.54900002 3.72799993 1.000000 1.000000
2.80200005 2.51200008 3.68300009 1.000000 1.000000
2.68199992 2.47900009 3.67799997 1.000000 1.000000
2.53200006 2.42199993 3.41100001 1.000000 1.000000
2.43300009 2.40899992 3.62599993 1.000000 1.000000
2.32800007 2.39199996 3.81900001 1.000000 1.000000
2.24499989 2.39400005 4.21400023 1.000000 1.000000
2.10899997 2.34999990 4.09600019 1.000000 1.000000
2.00900006 2.33400011 4.28800011 1.000000 1.000000
1.87600005 2.29099989 4.16099977 1.000000 1.000000
1.76199996 2.26500010 4.25299978 1.000000 1.000000
1.66100001 2.24799991 4.41699982 1.000000 1.000000
1.46200001 2.15400004 3.76500010 1.000000 1.000000
1.54900002 2.28600001 5.54199982 1.000000 1.000000
1.43900001 2.26200008 5.63800001 1.000000 1.000000
1.12800002 2.02099991 3.07200003 1.000000 1.000000
1.07299995 2.03900003 3.61299992 1.000000 1.000000
0.95099998 2.00500011 3.59899998 1.000000 1.000000
3.20300007 2.77099991 3.99799991 1.000000 1.000000
3.07999992 2.73399997 3.94199991 1.000000 1.000000
2.94799995 2.69000006 3.80500007 1.000000 1.000000
2.81699991 2.64899993 3.72499990 1.000000 1.000000
2.69400001 2.61299992 3.69000006 1.000000 1.000000
2.56299996 2.57399988 3.62199998 1.000000 1.000000
2.48900008 2.58599997 4.13800001 1.000000 1.000000
2.37400007 2.55999994 4.22200012 1.000000 1.000000
2.27200007 2.54299998 4.38899994 1.000000 1.000000
2.14000010 2.49900007 4.25899982 1.000000 1.000000
2.01799989 2.46700001 4.27400017 1.000000 1.000000
1.89900005 2.43499994 4.27199984 1.000000 1.000000
1.75899994 2.38800001 4.12900019 1.000000 1.000000
1.56500006 2.29800010 3.51699996 1.000000 1.000000
1.42900002 2.25500011 3.42600012 1.000000 1.000000
1.29499996 2.21300006 3.31699991 1.000000 1.000000
1.17999995 2.18400002 3.36500001 1.000000 1.000000
1.06500006 2.16000009 3.46199989 1.000000 1.000000
0.96799999 2.14499998 3.65100002 1.000000 1.000000
0.88099998 2.14000010 3.95499992 1.000000 1.000000
0.76800001 2.11500001 4.05000019 1.000000 1.000000
1.34500003 2.42199993 3.47900009 1.000000 1.000000
1.19099998 2.36599994 3.24900007 1.000000 1.000000
1.05599999 2.32100010 3.12500000 1.000000 1.000000
0.90600002 2.26999998 2.94199991 1.000000 1.000000
0.79100001 2.24399996 3.03399992 1.000000 1.000000
0.60200000 2.16400003 2.55999994 1.000000 1.000000
3.12299991 2.93799996 4.05399990 1.000000 1.000000
2.97099996 2.87800002 3.75000000 1.000000 1.000000
2.83500004 2.83200002 3.57900000 1.000000 1.000000
2.70900011 2.79699993 3.56999993 1.000000 1.000000
2.58599997 2.76399994 3.58400011 1.000000 1.000000
2.46199989 2.73099995 3.59899998 1.000000 1.000000
2.37500000 2.72700000 3.92799997 1.000000 1.000000
2.32999992 2.75999999 4.65799999 1.000000 1.000000
2.18899989 2.71199989 4.48600006 1.000000 1.000000
2.06800008 2.67700005 4.45599985 1.000000 1.000000
1.86300004 2.57699990 3.71399999 1.000000 1.000000
1.78299999 2.57900000 4.11800003 1.000000 1.000000
1.65499997 2.54299998 4.08599997 1.000000 1.000000
3.14100003 3.13000011 3.16499996 1.000000 1.000000
3.02099991 3.09699988 3.16499996 1.000000 1.000000
2.88700008 3.05500007 3.06900001 1.000000 1.000000
2.76099992 3.01999998 3.06599998 1.000000 1.000000
2.64899993 2.99799991 3.21000004 1.000000 1.000000
2.52399993 2.96199989 3.16300011 1.000000 1.000000
2.40000010 2.92600012 3.13000011 1.000000 1.000000
2.25099993 2.87199998 2.89400005 1.000000 1.000000
2.13000011 2.83999991 2.90700006 1.000000 1.000000
2.00600004 2.80800009 2.92499995 1.000000 1.000000
2.02600002 2.89499998 4.30499983 1.000000 1.000000
1.90199995 2.86199999 4.30499983 1.000000 1.000000
1.77600002 2.82399988 4.23999977 1.000000 1.000000
1.63900006 2.77699995 4.07900000 1.000000 1.000000
1.42200005 2.67100000 3.27200007 1.000000 1.000000
1.28900003 2.62800002 3.16899991 1.000000 1.000000
1.17400002 2.60299993 3.26300001 1.000000 1.000000
1.03999996 2.56299996 3.19700003 1.000000 1.000000
0.91900003 2.53200006 3.23799992 1.000000 1.000000
0.80400002 2.50399995 3.28800011 1.000000 1.000000
0.64600003 2.44400001 3.00000000 1.000000 1.000000
1.51800001 2.49600005 3.93199992 1.000000 1.000000
3.03399992 3.28299999 3.22799993 1.000000 1.000000
2.90199995 3.24399996 3.16100001 1.000000 1.000000
2.77600002 3.20900011 3.15100002 1.000000 1.000000
2.65100002 3.17100000 3.08800006 1.000000 1.000000
2.52200007 3.13100004 3.00300002 1.000000 1.000000
2.38899994 3.09200001 2.94000006 1.000000 1.000000
2.26399994 3.05399990 2.89000010 1.000000 1.000000
2.13700008 3.01999998 2.88299990 1.000000 1.000000
2.00399995 2.98099995 2.84100008 1.000000 1.000000
2.04299998 3.08500004 4.40899992 1.000000 1.000000
1.92499995 3.05399990 4.41599989 1.000000 1.000000
1.80599999 3.02099991 4.41499996 1.000000 1.000000
1.66999996 2.97900009 4.30800009 1.000000 1.000000
1.43799996 2.85599995 3.29500008 1.000000 1.000000
1.31299996 2.82299995 3.31100011 1.000000 1.000000
1.14100003 2.75300002 2.91100001 1.000000 1.000000
1.04999995 2.74499989 3.20900011 1.000000 1.000000
0.94000000 2.72199988 3.31599998 1.000000 1.000000
0.82800001 2.69600010 3.38499999 1.000000 1.000000
0.69199997 2.65499997 3.31500006 1.000000 1.000000
0.46200001 2.54200006 2.46799994 1.000000 1.000000
3.03500009 3.45600009 3.29099989 1.000000 1.000000
2.90599990 3.41599989 3.19899988 1.000000 1.000000
2.77999997 3.38100004 3.18199992 1.000000 1.000000
2.65499997 3.34400010 3.12899995 1.000000 1.000000
2.52099991 3.30299997 3.04500008 1.000000 1.000000
2.38700008 3.25999999 2.95300007 1.000000 1.000000
2.25300002 3.21900010 2.87599993 1.000000 1.000000
2.12500000 3.18099999 2.80999994 1.000000 1.000000
2.00500011 3.15000010 2.82900000 1.000000 1.000000
1.88000000 3.11700010 2.83999991 1.000000 1.000000
1.93900001 3.23300004 4.53399992 1.000000 1.000000
1.81500006 3.19799995 4.52400017 1.000000 1.000000
1.31599998 2.99499989 3.35800004 1.000000 1.000000
1.22800004 2.98799992 3.64400005 1.000000 1.000000
1.07299995 2.93099999 3.39199996 1.000000 1.000000
0.95999998 2.90400004 3.45199990 1.000000 1.000000
0.82300001 2.86100006 3.36299992 1.000000 1.000000
0.71499997 2.84100008 3.51099992 1.000000 1.000000
0.57700002 2.79900002 3.41700006 1.000000 1.000000
0.63999999 2.95700002 3.48000002 1.000000 1.000000
0.46599999 2.88400006 3.06399989 1.000000 1.000000
0.29699999 2.81999993 2.73799992 1.000000 1.000000
2.84100008 3.53699994 3.24200010 1.000000 1.000000
2.70700002 3.49600005 3.14400005 1.000000 1.000000
2.58400011 3.46399999 3.17199993 1.000000 1.000000
2.45000005 3.42300010 3.08699989 1.000000 1.000000
2.19000006 3.33999991 2.89899993 1.000000 1.000000
1.87000000 3.35400009 4.57200003 1.000000 1.000000
1.25999999 3.12400007 3.48099995 1.000000 1.000000
1.16100001 3.10999990 3.67300010 1.000000 1.000000
1.02800000 3.06900001 3.60200000 1.000000 1.000000
0.86900002 3.00999999 3.33200002 1.000000 1.000000
0.77999997 3.00300002 3.62500000 1.000000 1.000000
0.72500002 3.09299994 2.57399988 1.000000 1.000000
0.51800001 3.05800009 2.92000008 1.000000 1.000000
0.24900000 2.97900009 2.80999994 1.000000 1.000000
1.81599998 3.58699989 2.99000001 1.000000 1.000000
1.91700006 0.88700002 4.17799997 1.000000 1.000000
2.01500010 0.92000002 4.07200003 1.000000 1.000000
2.20600009 0.98600000 3.83999991 1.000000 1.000000
1.80100000 0.90600002 2.84599996 1.000000 1.000000
1.64300001 0.88200003 2.26900005 1.000000 1.000000
1.82000005 0.93400002 2.28299999 1.000000 1.000000
2.72600007 1.15900004 3.31299996 1.000000 1.000000
1.57400000 1.02699995 5.24800014 1.000000 1.000000
1.62199998 1.04900002 5.04699993 1.000000 1.000000
1.74199998 1.08700001 4.98199987 1.000000 1.000000
1.88300002 1.13000000 4.95100021 1.000000 1.000000
1.76699996 1.11699998 4.47300005 1.000000 1.000000
2.00399995 1.18099999 4.60699987 1.000000 1.000000
1.90799999 1.17100000 4.15999985 1.000000 1.000000
1.90900004 1.18299997 3.87400007 1.000000 1.000000
1.41199994 0.32699999 3.98799992 1.000000 1.000000
1.66799998 0.40799999 3.86299992 1.000000 1.000000
1.72099996 0.48600000 2.23300004 1.000000 1.000000
2.34999990 0.65100002 2.75399995 1.000000 1.000000
2.41899991 0.67900002 2.57800007 1.000000 1.000000
2.75000000 0.76499999 2.88499999 1.000000 1.000000
2.94499993 0.81999999 2.95199990 1.000000 1.000000
1.60099995 0.56900001 4.07000017 1.000000 1.000000
1.60699999 0.58099997 3.80500007 1.000000 1.000000
1.88300002 0.65499997 3.98799992 1.000000 1.000000
2.09899998 0.71499997 4.08699989 1.000000 1.000000
1.60899997 0.63800001 2.35100007 1.000000 1.000000
1.73699999 0.67799997 2.29500008 1.000000 1.000000
1.83800006 0.71200001 2.18600011 1.000000 1.000000
2.44199991 0.87099999 2.67799997 1.000000 1.000000
2.94899988 0.99599999 3.28900003 1.000000 1.000000
3.23600006 1.07299995 3.51099992 1.000000 1.000000
3.60200000 1.18900001 3.30699992 1.000000 1.000000
1.74199998 0.82499999 4.44899988 1.000000 1.000000
1.81900001 0.85299999 4.29600000 1.000000 1.000000
2.82800007 0.61600000 2.97799993 1.000000 1.000000
3.03200006 0.67299998 3.04800010 1.000000 1.000000
3.22199988 0.72799999 3.09200001 1.000000 1.000000
2.90700006 0.45699999 3.00600004 1.000000 1.000000
3.14499998 0.52200001 3.14899993 1.000000 1.000000
0.60500002 3.07100010 3.74900007 1.000000 1.000000
0.72500002 3.10899997 3.68000007 1.000000 1.000000
0.39899999 3.03600001 2.84400010 1.000000 1.000000
0.66100001 3.01300001 3.69499993 1.000000 1.000000
0.79500002 3.05399990 3.63800001 1.000000 1.000000
0.55599999 3.00500011 2.94899988 1.000000 1.000000
2.48399997 3.57399988 3.17799997 1.000000 1.000000
0.61100000 2.90100002 3.70300007 1.000000 1.000000
0.75099999 2.94499993 3.65599990 1.000000 1.000000
0.82999998 2.97399998 3.50699997 1.000000 1.000000
1.05200005 3.03699994 3.60200000 1.000000 1.000000
1.21899998 3.08699989 3.61400008 1.000000 1.000000
1.83899999 3.24600005 4.41900015 1.000000 1.000000
2.41100001 3.45700002 3.14100003 1.000000 1.000000
2.58299994 3.50900006 3.17199993 1.000000 1.000000
2.77399993 3.56399989 3.22199988 1.000000 1.000000
0.99699998 2.89299989 2.40899992 1.000000 1.000000
2.24300003 3.24900007 2.87500000 1.000000 1.000000
2.46199989 3.31100011 2.98699999 1.000000 1.000000
2.70700002 3.37899995 3.15100002 1.000000 1.000000
0.65100002 2.83699989 3.62100005 1.000000 1.000000
0.76400000 2.87400007 3.52699995 1.000000 1.000000
0.85299999 2.90499997 3.40400004 1.000000 1.000000
0.95800000 2.94000006 3.30800009 1.000000 1.000000
1.38300002 3.05200005 3.75600004 1.000000 1.000000
1.30400002 3.04200006 3.34200001 1.000000 1.000000
0.95700002 2.96700001 2.44000006 1.000000 1.000000
2.45700002 3.39499998 3.07100010 1.000000 1.000000
2.66599989 3.45400000 3.15700006 1.000000 1.000000
2.88000011 3.51600003 3.25200009 1.000000 1.000000
2.90599990 3.43600011 3.21700001 1.000000 1.000000
0.65399998 2.75300002 3.53600001 1.000000 1.000000
0.80400002 2.79900002 3.50600004 1.000000 1.000000
0.87599999 2.82599998 3.35400009 1.000000 1.000000
1.03199995 2.87299991 3.33500004 1.000000 1.000000
1.78199995 3.06200004 4.35099983 1.000000 1.000000
1.90499997 3.10100007 4.28100014 1.000000 1.000000
0.75099999 2.67400002 3.57500005 1.000000 1.000000
0.80500001 2.69700003 3.37899995 1.000000 1.000000
0.89200002 2.72799993 3.24000001 1.000000 1.000000
1.21000004 2.81399989 3.49900007 1.000000 1.000000
1.74600005 2.95099998 4.15600014 1.000000 1.000000
2.02200007 3.02600002 4.36299992 1.000000 1.000000
1.05100000 2.80399990 2.36500001 1.000000 1.000000
1.75300002 3.00099993 2.73099995 1.000000 1.000000
1.97300005 3.06399989 2.82900000 1.000000 1.000000
2.10999990 3.10599995 2.78900003 1.000000 1.000000
2.58899999 3.23799992 3.07299995 1.000000 1.000000
2.79099989 3.29600000 3.15199995 1.000000 1.000000
2.99799991 3.35599995 3.23200011 1.000000 1.000000
2.19300008 3.06699991 2.88499999 1.000000 1.000000
2.40000010 3.12599993 2.96300006 1.000000 1.000000
2.60100007 3.18300009 3.02900004 1.000000 1.000000
2.82800007 3.24799991 3.14700007 1.000000 1.000000
3.01200008 3.29999995 3.19700003 1.000000 1.000000
0.68699998 2.59999990 3.38400006 1.000000 1.000000
0.82300001 2.64299989 3.34100008 1.000000 1.000000
0.93099999 2.67799997 3.25000000 1.000000 1.000000
1.43900001 2.80900002 3.84100008 1.000000 1.000000
1.77699995 2.89800000 4.15299988 1.000000 1.000000
2.11400008 2.98799992 4.45699978 1.000000 1.000000
0.71799999 2.51900005 3.31200004 1.000000 1.000000
0.93400002 2.58100009 3.39499998 1.000000 1.000000
1.34899998 2.68899989 3.83400011 1.000000 1.000000
1.64699996 2.76900005 4.06300020 1.000000 1.000000
1.91199994 2.84100008 4.23699999 1.000000 1.000000
2.24000001 2.92899990 4.52400017 1.000000 1.000000
1.41799998 2.74699998 2.79999995 1.000000 1.000000
1.95799994 2.90400004 2.89400005 1.000000 1.000000
2.16599989 2.96300006 2.97000003 1.000000 1.000000
2.28999996 3.00300002 2.89400005 1.000000 1.000000
2.48600006 3.05900002 2.95099998 1.000000 1.000000
2.71600008 3.12199998 3.08299994 1.000000 1.000000
2.90300012 3.17700005 3.13700008 1.000000 1.000000
1.83200002 2.96199989 2.81900001 1.000000 1.000000
2.01699996 3.01600003 2.85599995 1.000000 1.000000
0.85699999 2.43700004 3.26500010 1.000000 1.000000
1.49000001 2.59299994 4.07999992 1.000000 1.000000
1.60399997 2.63100004 3.99000001 1.000000 1.000000
1.95500004 2.72300005 4.32499981 1.000000 1.000000
2.22499990 2.79600000 4.51100016 1.000000 1.000000
1.50999999 2.64299989 2.96399999 1.000000 1.000000
1.40799999 2.63100004 2.49000001 1.000000 1.000000
0.73500001 2.45499992 3.34699988 1.000000 1.000000
0.93900001 2.51399994 3.41000009 1.000000 1.000000
1.26400006 2.60100007 3.68300009 1.000000 1.000000
1.64900005 2.70099998 4.07499981 1.000000 1.000000
2.05500007 2.80500007 4.50799990 1.000000 1.000000
2.12299991 2.83200002 4.34499979 1.000000 1.000000
1.38300002 2.67000008 2.76600003 1.000000 1.000000
1.50800002 2.71000004 2.69300008 1.000000 1.000000
2.04200006 2.85599995 3.04999995 1.000000 1.000000
2.49499989 2.97099996 3.57999992 1.000000 1.000000
2.29699993 2.93600011 2.94000006 1.000000 1.000000
2.48699999 2.99099994 2.98699999 1.000000 1.000000
2.68600011 3.04699993 3.06200004 1.000000 1.000000
2.86899996 3.09999990 3.09800005 1.000000 1.000000
3.09999990 3.16400003 3.22399998 1.000000 1.000000
2.08699989 2.80800009 3.12500000 1.000000 1.000000
2.48200011 2.91000009 3.53900003 1.000000 1.000000
2.71799994 2.97399998 3.67899990 1.000000 1.000000
2.47700000 2.93099999 2.94700003 1.000000 1.000000
2.68199992 2.98900008 3.02200007 1.000000 1.000000
2.86199999 3.04099989 3.04999995 1.000000 1.000000
3.07599998 3.10100007 3.15899992 1.000000 1.000000
0.74000001 2.39899993 3.34299994 1.000000 1.000000
0.78899997 2.35800004 3.28399992 1.000000 1.000000
1.06500006 2.43099999 3.48099995 1.000000 1.000000
1.63499999 2.57299995 4.17899990 1.000000 1.000000
1.59200001 2.57500005 3.81900001 1.000000 1.000000
2.12899995 2.70799994 4.46799994 1.000000 1.000000
2.32599998 2.76399994 4.53999996 1.000000 1.000000
1.63100004 2.61800003 3.03999996 1.000000 1.000000
2.01600003 2.71600008 3.42700005 1.000000 1.000000
2.17499995 2.76300001 3.42799997 1.000000 1.000000
2.37500000 2.81999993 3.49200010 1.000000 1.000000
2.63199997 2.89000010 3.66000009 1.000000 1.000000
2.50600004 2.87299991 3.13899994 1.000000 1.000000
2.58200002 2.90100002 2.99099994 1.000000 1.000000
2.74099994 2.94799995 2.99499989 1.000000 1.000000
2.94600010 3.00600004 3.07100010 1.000000 1.000000
3.19799995 3.07500005 3.24699998 1.000000 1.000000
1.64100003 2.53699994 4.17000008 1.000000 1.000000
1.67499995 2.55599999 3.95199990 1.000000 1.000000
2.15100002 2.67499995 4.49800014 1.000000 1.000000
2.34599996 2.73000002 4.56400013 1.000000 1.000000
1.67100000 2.59100008 3.08800006 1.000000 1.000000
1.99500000 2.67499995 3.36800003 1.000000 1.000000
2.28999996 2.75300002 3.59800005 1.000000 1.000000
2.36899996 2.78200006 3.45700002 1.000000 1.000000
2.59800005 2.84500003 3.58599997 1.000000 1.000000
2.56500006 2.84999990 3.23099995 1.000000 1.000000
2.60700011 2.87199998 3.02300000 1.000000 1.000000
2.76399994 2.91799998 3.00999999 1.000000 1.000000
2.94899988 2.97199988 3.04999995 1.000000 1.000000
1.55599999 2.39299989 5.66300011 1.000000 1.000000
0.78399998 2.24499989 3.80299997 1.000000 1.000000
1.01900005 2.30900002 3.92899990 1.000000 1.000000
1.15199995 2.36299992 3.59299994 1.000000 1.000000
0.78899997 2.32200003 3.26699996 1.000000 1.000000
1.23899996 2.43499994 3.75099993 1.000000 1.000000
1.67299998 2.49000001 4.21400023 1.000000 1.000000
1.78199995 2.52699995 4.11999989 1.000000 1.000000
2.03999996 2.59599996 4.28100014 1.000000 1.000000
2.35200000 2.67799997 4.54400015 1.000000 1.000000
1.92999995 2.59599996 3.52699995 1.000000 1.000000
1.96800005 2.61700010 3.31399989 1.000000 1.000000
2.23799992 2.68899989 3.50000000 1.000000 1.000000
2.47099996 2.75200009 3.63499999 1.000000 1.000000
2.57999992 2.78800011 3.53699994 1.000000 1.000000
2.77399993 2.84400010 3.59200001 1.000000 1.000000
2.76300001 2.85400009 3.27800012 1.000000 1.000000
2.75999999 2.86500001 2.98699999 1.000000 1.000000
2.91899991 2.91199994 2.99200010 1.000000 1.000000
1.55599999 2.35400009 5.64400005 1.000000 1.000000
0.77399999 2.19300008 4.05999994 1.000000 1.000000
0.85399997 2.22399998 3.92499995 1.000000 1.000000
1.01300001 2.27099991 3.90899992 1.000000 1.000000
1.18799996 2.33500004 3.64700007 1.000000 1.000000
1.66400003 2.45199990 4.18100023 1.000000 1.000000
1.79700005 2.49399996 4.12699986 1.000000 1.000000
2.08400011 2.56900001 4.35099983 1.000000 1.000000
2.35100007 2.63899994 4.53999996 1.000000 1.000000
2.09500003 2.59599996 3.80200005 1.000000 1.000000
2.01900005 2.59299994 3.38700008 1.000000 1.000000
2.26799989 2.66000009 3.53600001 1.000000 1.000000
2.48300004 2.71900010 3.62599993 1.000000 1.000000
2.62100005 2.76300001 3.58400011 1.000000 1.000000
2.85700011 2.82599998 3.72499990 1.000000 1.000000
2.78500009 2.82299995 3.31100011 1.000000 1.000000
2.76399994 2.83200002 2.97600007 1.000000 1.000000
2.91700006 2.87800002 2.96900010 1.000000 1.000000
1.18799996 2.27099991 3.48600006 1.000000 1.000000
1.60300004 2.37299991 3.92400002 1.000000 1.000000
1.85000002 2.44000006 4.06599998 1.000000 1.000000
2.16400003 2.51999998 4.33799982 1.000000 1.000000
2.28699994 2.55999994 4.26900005 1.000000 1.000000
2.21099997 2.55599999 3.84899998 1.000000 1.000000
2.20300007 2.56900001 3.54299998 1.000000 1.000000
2.34599996 2.61100006 3.51799989 1.000000 1.000000
2.43199992 2.64299989 3.39199996 1.000000 1.000000
2.75999999 2.72700000 3.68199992 1.000000 1.000000
2.92499995 2.77500010 3.69700003 1.000000 1.000000
1.46800005 2.25399995 5.62400007 1.000000 1.000000
1.58800006 2.29299998 5.55299997 1.000000 1.000000
1.65999997 2.32100010 5.40999985 1.000000 1.000000
0.91700000 2.17300010 3.87299991 1.000000 1.000000
1.18599999 2.24499989 4.04400015 1.000000 1.000000
1.09899998 2.23900008 3.60800004 1.000000 1.000000
2.66300011 2.48000002 3.55699992 1.000000 1.000000
2.72900009 2.50799990 3.39100003 1.000000 1.000000
3.05999994 2.59100008 3.70600009 1.000000 1.000000
1.51300001 2.19600010 5.53499985 1.000000 1.000000
0.84700000 2.06500006 4.13800001 1.000000 1.000000
1.02600002 2.11700010 4.15700006 1.000000 1.000000
1.00399995 2.12500000 3.84699988 1.000000 1.000000
1.60800004 2.26799989 4.60400009 1.000000 1.000000
1.30900002 2.21700001 3.80900002 1.000000 1.000000
1.55499995 2.28200006 3.95700002 1.000000 1.000000
1.77999997 2.34400010 4.05800009 1.000000 1.000000
2.05800009 2.41700006 4.25600004 1.000000 1.000000
2.14899993 2.45000005 4.12699986 1.000000 1.000000
2.08100009 2.44899988 3.73300004 1.000000 1.000000
2.10100007 2.46600008 3.48799992 1.000000 1.000000
2.28299999 2.51799989 3.51699996 1.000000 1.000000
2.42400002 2.56100011 3.48600006 1.000000 1.000000
2.68000007 2.62899995 3.65100002 1.000000 1.000000
2.49699998 2.60500002 3.02600002 1.000000 1.000000
3.13400006 2.75200009 3.88199997 1.000000 1.000000
2.69799995 2.67400002 2.80699992 1.000000 1.000000
2.85299993 2.72000003 2.79999995 1.000000 1.000000
2.36100006 2.21499991 3.48799992 1.000000 1.000000
2.72099996 2.31800008 3.56900001 1.000000 1.000000
2.84899998 2.35899997 3.50500011 1.000000 1.000000
2.43400002 2.31299996 1.86199999 1.000000 1.000000
2.17100000 2.19199991 6.57999992 1.000000 1.000000
2.12599993 2.19499993 6.24499989 1.000000 1.000000
1.77499998 2.13199997 5.38700008 1.000000 1.000000
1.91400003 2.17400002 5.34600019 1.000000 1.000000
1.73699999 2.15000010 4.77600002 1.000000 1.000000
1.91499996 2.20099998 4.79899979 1.000000 1.000000
2.03999996 2.24099994 4.73199987 1.000000 1.000000
2.09999990 2.28099990 4.27799988 1.000000 1.000000
2.17300010 2.30900002 4.13100004 1.000000 1.000000
2.41899991 2.37500000 4.27400017 1.000000 1.000000
2.05200005 2.30999994 3.34899998 1.000000 1.000000
2.28699994 2.37299991 3.47199988 1.000000 1.000000
2.22799993 2.37500000 3.07299995 1.000000 1.000000
0.25700000 1.38399994 3.76699996 1.000000 1.000000
1.96899998 1.76999998 6.34600019 1.000000 1.000000
0.41200000 1.42999995 3.74399996 1.000000 1.000000
1.82400000 1.75100005 5.84100008 1.000000 1.000000
0.61799997 1.48699999 3.81500006 1.000000 1.000000
1.95099998 1.79100001 5.77899981 1.000000 1.000000
2.01600003 1.81700003 5.61299992 1.000000 1.000000
1.94599998 1.81500006 5.21600008 1.000000 1.000000
2.09599996 1.86000001 5.20599985 1.000000 1.000000
2.20700002 1.89600003 5.12599993 1.000000 1.000000
2.02500010 1.87000000 4.53100014 1.000000 1.000000
2.26300001 1.93400002 4.67000008 1.000000 1.000000
2.41300011 1.97899997 4.64599991 1.000000 1.000000
2.21600008 1.95000005 4.01599979 1.000000 1.000000
2.50200009 2.02399993 4.22900009 1.000000 1.000000
2.33999991 2.00200009 3.66499996 1.000000 1.000000
2.38700008 2.02500010 3.46700001 1.000000 1.000000
2.55299997 2.07399988 3.46900010 1.000000 1.000000
2.42300010 2.05900002 2.95400000 1.000000 1.000000
2.30399990 2.04699993 2.44099998 1.000000 1.000000
2.38199997 2.07800007 2.27800012 1.000000 1.000000
2.54600000 2.12700009 2.27200007 1.000000 1.000000
2.74200010 2.18099999 2.33899999 1.000000 1.000000
2.89899993 2.22799993 2.33400011 1.000000 1.000000
0.10100000 1.53199995 3.84999990 1.000000 1.000000
1.61800003 1.87399995 6.09100008 1.000000 1.000000
0.25299999 1.57799995 3.82100010 1.000000 1.000000
1.71899998 1.90799999 5.99800014 1.000000 1.000000
0.47700000 1.63900006 3.92199993 1.000000 1.000000
1.75199997 1.92799997 5.79199982 1.000000 1.000000
0.66700000 1.69299996 3.97099996 1.000000 1.000000
1.77100003 1.94500005 5.54600000 1.000000 1.000000
1.88999999 1.99600005 5.20400000 1.000000 1.000000
1.33000004 1.88900006 3.96700001 1.000000 1.000000
2.09699988 2.06699991 4.99800014 1.000000 1.000000
2.16899991 2.09500003 4.85099983 1.000000 1.000000
2.10100007 2.09299994 4.46000004 1.000000 1.000000
2.31200004 2.15100002 4.54199982 1.000000 1.000000
2.30200005 2.16300011 4.25099993 1.000000 1.000000
2.32999992 2.18199992 4.01200008 1.000000 1.000000
1.61099994 1.47700000 5.89300013 1.000000 1.000000
1.86099994 1.54400003 6.03900003 1.000000 1.000000
1.83000004 1.54900002 5.72300005 1.000000 1.000000
1.84800005 1.56500006 5.48699999 1.000000 1.000000
1.81599998 1.57000005 5.15399981 1.000000 1.000000
2.14000010 1.65300000 5.43599987 1.000000 1.000000
1.22599995 1.46700001 3.59299994 1.000000 1.000000
2.18000007 1.68700004 4.94600010 1.000000 1.000000
1.95899999 1.65199995 4.28499985 1.000000 1.000000
1.92299998 1.65600002 3.94600010 1.000000 1.000000
2.31800008 1.75399995 4.35900021 1.000000 1.000000
2.81100011 1.88600004 4.66300011 1.000000 1.000000
2.37400007 1.80499995 3.60299993 1.000000 1.000000
2.59699988 1.86600006 3.70700002 1.000000 1.000000
2.58599997 1.87600005 3.39599991 1.000000 1.000000
2.79099989 1.93299997 3.47900009 1.000000 1.000000
2.26399994 1.83299994 2.24600005 1.000000 1.000000
2.45199990 1.88699996 2.28200006 1.000000 1.000000
1.67700005 1.30299997 5.75600004 1.000000 1.000000
1.74000001 1.32799995 5.58599997 1.000000 1.000000
1.78999996 1.35099995 5.40399981 1.000000 1.000000
1.77300000 1.35899997 5.09700012 1.000000 1.000000
1.88499999 1.39600003 5.00799990 1.000000 1.000000
1.89900005 1.41199994 4.75000000 1.000000 1.000000
2.26900005 1.50500000 5.11600018 1.000000 1.000000
1.68900001 1.38999999 3.83899999 1.000000 1.000000
1.98500001 1.46700001 4.06300020 1.000000 1.000000
2.13299990 1.51199996 4.04300022 1.000000 1.000000
2.48799992 1.60300004 4.37799978 1.000000 1.000000
2.81999993 1.68700004 4.67199993 1.000000 1.000000
2.36999989 1.60200000 3.59100008 1.000000 1.000000
2.56999993 1.65699995 3.66700006 1.000000 1.000000
2.85400009 1.74399996 3.59699988 1.000000 1.000000
3.01399994 1.79100001 3.60200000 1.000000 1.000000
2.89299989 1.77900004 3.08800006 1.000000 1.000000
2.91499996 1.79600000 2.82699990 1.000000 1.000000
2.84299994 1.79400003 2.39700007 1.000000 1.000000
3.00799990 1.84200001 2.40599990 1.000000 1.000000
3.17400002 1.88999999 2.42000008 1.000000 1.000000
3.40199995 1.95299995 2.53900003 1.000000 1.000000
3.54999995 1.99699998 2.52200007 1.000000 1.000000
3.75300002 2.05299997 2.59599996 1.000000 1.000000
2.63599992 1.93900001 2.32500005 1.000000 1.000000
2.82299995 1.99199998 2.36299992 1.000000 1.000000
2.99399996 2.04200006 2.37400007 1.000000 1.000000
3.21300006 2.10200000 2.47600007 1.000000 1.000000
3.35999990 2.14599991 2.45700002 1.000000 1.000000
3.54900002 2.20000005 2.51799989 1.000000 1.000000
3.34400010 1.30799997 4.13999987 1.000000 1.000000
3.33200002 1.32900000 3.54399991 1.000000 1.000000
3.44300008 1.36500001 3.44899988 1.000000 1.000000
3.41400003 1.37100005 3.09699988 1.000000 1.000000
3.09500003 1.31200004 2.20799994 1.000000 1.000000
3.29800010 1.37000000 2.28999996 1.000000 1.000000
3.47000003 1.41900003 2.31399989 1.000000 1.000000
2.14599991 1.24800003 3.99900007 1.000000 1.000000
2.14199996 1.25899994 3.71600008 1.000000 1.000000
2.15899992 1.28699994 3.16899991 1.000000 1.000000
2.43799996 1.36000001 3.37899995 1.000000 1.000000
2.92600012 1.49199998 3.66400003 1.000000 1.000000
3.18300009 1.55999994 3.83200002 1.000000 1.000000
3.12500000 1.55999994 3.44700003 1.000000 1.000000
3.26500010 1.60300004 3.41599989 1.000000 1.000000
3.24699998 1.61099994 3.08699989 1.000000 1.000000
3.04399991 1.57900000 2.42499995 1.000000 1.000000
3.15700006 1.61600006 2.32900000 1.000000 1.000000
3.34999990 1.67100000 2.38100004 1.000000 1.000000
3.57999992 1.73399997 2.50399995 1.000000 1.000000
3.80200005 1.79400003 2.62599993 1.000000 1.000000
3.99000001 1.84700000 2.68600011 1.000000 1.000000
1.17200005 1.63100004 2.60999990 1.000000 1.000000
1.17400002 1.66100001 2.28099990 1.000000 1.000000
1.27499998 1.23599994 2.29800010 1.000000 1.000000
1.38199997 0.78299999 2.33500004 1.000000 1.000000
1.48300004 0.35800001 2.34599996 1.000000 1.000000
1.19400001 1.25699997 2.24200010 1.000000 1.000000
1.31400001 0.74299997 2.31200004 1.000000 1.000000
1.41799998 0.30500001 2.32399988 1.000000 1.000000
1.10399997 1.63100004 2.26099992 1.000000 1.000000
1.62899995 1.41799998 2.57599998 1.000000 1.000000
1.69900000 1.13800001 2.47300005 1.000000 1.000000
1.70099998 1.16299999 2.16000009 1.000000 1.000000
1.48699999 1.45200002 4.33300018 1.000000 1.000000
1.57900000 1.29700005 2.35400009 1.000000 1.000000
1.50500000 1.15799999 2.41400003 1.000000 1.000000
1.54299998 1.02300000 2.20799994 1.000000 1.000000
1.63300002 0.64700001 2.19099998 1.000000 1.000000
1.26800001 1.65600002 2.77900004 1.000000 1.000000
1.25800002 1.74300003 2.42199993 1.000000 1.000000
1.44299996 0.97000003 2.37299991 1.000000 1.000000
1.51800001 0.66799998 2.28999996 1.000000 1.000000
1.74000001 1.38900006 3.11599994 1.000000 1.000000
1.78699994 1.25199997 2.60800004 1.000000 1.000000
1.79400003 1.25800002 2.30999994 1.000000 1.000000
1.80599999 1.24100006 2.02600002 1.000000 1.000000
1.64900005 1.98899996 5.63899994 1.000000 1.000000
1.69299996 1.82200003 5.45699978 1.000000 1.000000
1.89800000 1.27400005 2.59999990 1.000000 1.000000
1.94799995 1.08200002 2.43499994 1.000000 1.000000
1.80200005 1.78699994 1.60699999 1.000000 1.000000
1.97300005 1.11099994 1.20799994 1.000000 1.000000
1.58500004 1.84599996 4.87500000 1.000000 1.000000
1.53100002 2.13400006 4.37200022 1.000000 1.000000
1.66299999 1.57200003 4.46899986 1.000000 1.000000
1.81500006 0.98000002 4.00699997 1.000000 1.000000
1.40999997 1.98599994 5.73199987 1.000000 1.000000
1.63399994 1.51300001 1.59399998 1.000000 1.000000
1.30900002 2.04800010 5.67700005 1.000000 1.000000
1.63900006 1.06200004 2.22000003 1.000000 1.000000
1.67400002 0.93400002 2.02099991 1.000000 1.000000
1.56200004 1.50899994 4.29300022 1.000000 1.000000
2.00300002 1.41999996 3.78800011 1.000000 1.000000
2.00300002 1.47599995 3.15300012 1.000000 1.000000
2.06800008 1.22300005 3.04399991 1.000000 1.000000
1.82500005 1.75800002 4.62599993 1.000000 1.000000
1.84000003 1.91700006 5.50500011 1.000000 1.000000
1.81200004 2.14299989 4.46999979 1.000000 1.000000
1.84399998 2.03399992 4.24599981 1.000000 1.000000
1.94299996 1.62300003 4.23600006 1.000000 1.000000
2.00200009 1.38999999 4.10099983 1.000000 1.000000
1.79400003 1.75999999 5.81300020 1.000000 1.000000
1.75600004 1.96300006 5.38500023 1.000000 1.000000
1.75399995 2.00999999 5.05000019 1.000000 1.000000
1.83500004 1.74699998 4.34399986 1.000000 1.000000
1.86699998 1.63800001 4.13199997 1.000000 1.000000
1.97800004 1.19500005 3.85899997 1.000000 1.000000
1.89900005 1.59000003 3.27099991 1.000000 1.000000
1.94900000 1.39600003 3.10599995 1.000000 1.000000
2.10100007 0.81599998 2.63899994 1.000000 1.000000
1.86000001 1.94799995 1.49699998 1.000000 1.000000
1.68700004 1.95299995 4.49399996 1.000000 1.000000
1.71700001 1.85200000 4.27799988 1.000000 1.000000
1.74300003 1.76699996 4.03599977 1.000000 1.000000
1.86899996 1.23000002 4.11499977 1.000000 1.000000
1.89199996 1.15900004 3.86400008 1.000000 1.000000
1.85099995 1.41400003 3.09699988 1.000000 1.000000
2.33299994 1.58099997 3.24200010 1.000000 1.000000
2.40799999 1.27199996 3.16199994 1.000000 1.000000
2.42499995 1.23199999 2.89800000 1.000000 1.000000
2.51500010 0.85900003 2.86999989 1.000000 1.000000
2.21300006 1.54600000 3.10999990 1.000000 1.000000
2.25999999 1.37100005 2.93199992 1.000000 1.000000
2.16400003 2.08699989 5.24900007 1.000000 1.000000
2.17199993 2.07699990 4.96799994 1.000000 1.000000
2.19799995 2.00099993 4.72100019 1.000000 1.000000
2.21700001 1.94700003 4.46999979 1.000000 1.000000
2.29800010 1.61300004 4.40600014 1.000000 1.000000
2.27500010 1.78600001 3.67799997 1.000000 1.000000
2.35800004 1.43599999 3.63800001 1.000000 1.000000
2.02699995 2.15599990 4.75699997 1.000000 1.000000
2.11400008 1.83599997 4.38199997 1.000000 1.000000
2.13800001 1.76199996 4.14400005 1.000000 1.000000
2.14700007 1.78900003 3.53099990 1.000000 1.000000
2.43000007 0.66799998 2.84899998 1.000000 1.000000
1.95400000 2.03699994 4.33400011 1.000000 1.000000
2.02800012 1.73399997 4.24900007 1.000000 1.000000
1.94400001 2.14499998 3.66400003 1.000000 1.000000
2.03600001 1.76600003 3.63199997 1.000000 1.000000
2.07699990 1.60599995 3.44300008 1.000000 1.000000
2.08899999 1.58899999 3.15100002 1.000000 1.000000
2.16100001 1.28799999 3.07599998 1.000000 1.000000
2.15199995 1.36699998 2.72600007 1.000000 1.000000
2.06299996 1.96500003 5.19199991 1.000000 1.000000
2.15100002 0.91299999 2.66100001 1.000000 1.000000
1.94000006 1.97300005 5.55700016 1.000000 1.000000
1.89699996 2.25999999 4.46600008 1.000000 1.000000
2.25600004 0.93199998 2.73900008 1.000000 1.000000
2.33999991 0.58600003 2.70000005 1.000000 1.000000
2.20199990 2.29600000 5.04099989 1.000000 1.000000
2.35200000 1.71800005 4.56300020 1.000000 1.000000
2.38599992 1.59700000 4.35900021 1.000000 1.000000
2.22399998 2.35700011 3.51300001 1.000000 1.000000
2.38899994 1.64900005 3.73000002 1.000000 1.000000
2.39400005 1.65199995 3.42300010 1.000000 1.000000
2.42600012 1.53699994 3.20199990 1.000000 1.000000
2.48099995 1.32900000 3.04900002 1.000000 1.000000
2.63899994 0.68000001 2.93899989 1.000000 1.000000
2.45199990 1.55200005 1.99000001 1.000000 1.000000
2.76099992 1.17100000 3.35999990 1.000000 1.000000
2.71000004 1.48899996 2.23200011 1.000000 1.000000
2.66700006 1.21800005 3.81599998 1.000000 1.000000
2.67799997 1.22899997 3.22399998 1.000000 1.000000
2.54200006 1.52999997 3.82999992 1.000000 1.000000
2.54399991 1.54700005 3.51500010 1.000000 1.000000
2.59999990 1.32299995 3.38700008 1.000000 1.000000
2.61100006 1.31099999 3.09100008 1.000000 1.000000
2.32299995 2.66799998 3.69099998 1.000000 1.000000
2.38800001 2.40700006 3.57200003 1.000000 1.000000
2.49699998 1.63600004 4.63399982 1.000000 1.000000
2.30100012 2.54999995 3.68000007 1.000000 1.000000
2.36100006 2.31299996 3.55599999 1.000000 1.000000
3.05599999 0.20000000 3.43400002 1.000000 1.000000
2.91100001 1.74600005 2.46399999 1.000000 1.000000
3.01300001 1.32400000 2.46799994 1.000000 1.000000
2.45199990 2.43799996 3.64499998 1.000000 1.000000
2.67300010 1.53499997 3.39899993 1.000000 1.000000
2.60400009 1.59000003 2.65400004 1.000000 1.000000
2.66100001 1.39699996 2.19700003 1.000000 1.000000
2.77699995 2.72700000 3.98499990 1.000000 1.000000
2.66000009 3.26799989 3.30500007 1.000000 1.000000
2.75600004 2.87599993 3.28099990 1.000000 1.000000
2.65100002 2.70700002 3.87299991 1.000000 1.000000
3.03099990 0.70200002 3.47099996 1.000000 1.000000
3.13899994 0.25700000 3.50699997 1.000000 1.000000
3.12899995 1.25800002 4.14099979 1.000000 1.000000
3.01099992 1.88300002 2.49200010 1.000000 1.000000
3.08100009 1.60000002 2.40599990 1.000000 1.000000
2.90000010 2.76799989 4.03700018 1.000000 1.000000
2.77500010 3.34500003 3.33299994 1.000000 1.000000
2.81800008 3.18700004 3.15100002 1.000000 1.000000
3.30800009 1.10000002 3.75600004 1.000000 1.000000
3.11500001 2.00699997 2.48399997 1.000000 1.000000
3.22199988 1.56599998 2.51300001 1.000000 1.000000
3.58599997 2.15000010 2.53500009 1.000000 1.000000
3.15199995 3.06999993 3.10800004 1.000000 1.000000
3.01600003 3.47900009 3.26399994 1.000000 1.000000
3.45300007 1.76600003 2.46199989 1.000000 1.000000
3.44099998 1.85899997 2.65499997 1.000000 1.000000
3.04099989 3.07399988 3.13599992 1.000000 1.000000
2.98900008 3.24499989 3.24499989 1.000000 1.000000
2.98399997 3.32999992 3.45700002 1.000000 1.000000
3.47099996 1.49899995 2.35800004 1.000000 1.000000
3.40000010 1.71099997 2.42899990 1.000000 1.000000
3.38499999 1.80900002 2.61700010 1.000000 1.000000
3.48499990 1.68499994 3.04800010 1.000000 1.000000
2.98000002 3.03299999 3.08699989 1.000000 1.000000
2.96499991 3.13299990 3.27300000 1.000000 1.000000
3.09200001 2.95499992 3.75500011 1.000000 1.000000
3.16000009 2.89499998 4.11899996 1.000000 1.000000
3.44400001 1.44400001 2.34899998 1.000000 1.000000
3.38800001 1.62600005 2.45300007 1.000000 1.000000
3.34899998 1.77499998 2.59400010 1.000000 1.000000
2.95799994 2.96600008 3.08899999 1.000000 1.000000
2.86999989 3.21199989 3.13000011 1.000000 1.000000
3.07599998 2.87899995 3.78999996 1.000000 1.000000
3.09500003 2.91100001 4.04500008 1.000000 1.000000
3.19499993 1.71300006 2.44000006 1.000000 1.000000
3.42100000 1.34099996 3.14700007 1.000000 1.000000
3.46000004 1.33700001 3.45600009 1.000000 1.000000
3.42400002 1.47899997 3.60100007 1.000000 1.000000
2.80599999 2.90100002 2.93799996 1.000000 1.000000
2.97099996 2.64899993 3.51500010 1.000000 1.000000
2.76099992 3.13299990 3.28299999 1.000000 1.000000
2.85599995 3.01900005 3.71000004 1.000000 1.000000
3.06500006 1.61199999 2.41799998 1.000000 1.000000
3.14899993 1.52199996 2.82599998 1.000000 1.000000
3.29600000 1.30400002 3.35899997 1.000000 1.000000
3.26799989 1.43400002 3.51999998 1.000000 1.000000
3.18499994 1.66700006 3.56699991 1.000000 1.000000
3.29200006 1.52900004 4.01900005 1.000000 1.000000
2.76699996 2.69700003 3.33200002 1.000000 1.000000
2.72900009 2.91499996 3.69099998 1.000000 1.000000
3.02600002 1.57799995 3.89800000 1.000000 1.000000
2.74600005 2.19799995 3.52500010 1.000000 1.000000
2.65300012 2.45199990 3.55299997 1.000000 1.000000
2.61299992 2.60299993 3.68000007 1.000000 1.000000
2.51699996 2.86199999 3.69199991 1.000000 1.000000
3.49300003 0.09900000 3.14899993 1.000000 1.000000
2.83599997 1.51699996 2.17000008 1.000000 1.000000
2.84599996 1.57099998 2.41799998 1.000000 1.000000
2.91000009 1.51800001 2.77300000 1.000000 1.000000
3.07699990 1.26300001 3.34800005 1.000000 1.000000
3.01600003 1.45700002 3.43799996 1.000000 1.000000
2.97199988 1.61000001 3.55999994 1.000000 1.000000
3.31800008 0.14900000 3.26099992 1.000000 1.000000
2.88400006 1.35000002 3.41899991 1.000000 1.000000
2.81399989 1.55499995 3.48499990 1.000000 1.000000
2.88000011 1.50000000 3.84800005 1.000000 1.000000
2.76099992 1.80100000 3.80800009 1.000000 1.000000
2.30200005 2.77300000 3.05800009 1.000000 1.000000
2.50900006 2.44099998 3.71900010 1.000000 1.000000
2.71000004 1.19200003 2.82999992 1.000000 1.000000
2.76699996 1.22899997 3.39899993 1.000000 1.000000
2.69199991 1.80200005 4.54300022 1.000000 1.000000
2.59999990 2.05399990 4.57200003 1.000000 1.000000
2.51799989 2.35700011 4.83099985 1.000000 1.000000
2.40000010 2.66100001 4.79899979 1.000000 1.000000
2.58400011 1.33200002 2.87100005 1.000000 1.000000
2.63499999 1.29999995 3.19899988 1.000000 1.000000
2.50999999 1.61899996 3.15199995 1.000000 1.000000
2.63000011 1.45799994 3.63199997 1.000000 1.000000
2.65899992 1.68299997 4.56500006 1.000000 1.000000
2.54699993 1.97200000 4.53999996 1.000000 1.000000
2.39599991 2.34100008 4.44399977 1.000000 1.000000
2.43700004 2.33400011 4.75000000 1.000000 1.000000
2.47199988 2.33500004 5.04500008 1.000000 1.000000
2.56699991 1.25300002 2.90799999 1.000000 1.000000
2.55200005 1.56099999 3.74300003 1.000000 1.000000
2.50300002 1.94000006 4.52299976 1.000000 1.000000
2.45199990 2.10700011 4.63000011 1.000000 1.000000
2.25600004 2.56699991 4.43800020 1.000000 1.000000
2.42199993 2.30599999 5.00400019 1.000000 1.000000
2.49799991 0.69700003 1.45700002 1.000000 1.000000
2.14800000 1.03199995 1.10699999 1.000000 1.000000
1.95599997 0.90499997 1.24399996 1.000000 1.000000
2.04099989 1.09700000 2.54299998 1.000000 1.000000
2.06399989 1.47899997 3.91199994 1.000000 1.000000
1.97500002 1.72599995 3.94700003 1.000000 1.000000
2.07699990 1.66900003 4.60799980 1.000000 1.000000
1.91299999 0.61199999 2.13199997 1.000000 1.000000
1.84399998 0.81999999 2.20700002 1.000000 1.000000
1.77800000 1.01600003 2.28099990 1.000000 1.000000
1.66199994 1.38900006 2.47799993 1.000000 1.000000
1.57700002 1.62899995 2.51999998 1.000000 1.000000
1.90199995 1.06500006 3.43499994 1.000000 1.000000
2.09400010 0.76099998 4.05600023 1.000000 1.000000
1.90499997 1.41600001 4.53200006 1.000000 1.000000
1.97899997 1.41199994 5.11800003 1.000000 1.000000
1.80100000 1.82900000 4.95900011 1.000000 1.000000
1.79700005 0.41700000 2.16700006 1.000000 1.000000
1.72099996 0.63800001 2.22799993 1.000000 1.000000
1.63100004 0.88400000 2.25900006 1.000000 1.000000
1.41799998 1.44000006 2.23000002 1.000000 1.000000
1.32700002 1.69200003 2.25699997 1.000000 1.000000
1.85200000 0.74199998 3.60100007 1.000000 1.000000
1.71300006 1.08500004 3.52500010 1.000000 1.000000
1.85000002 0.89200002 4.04199982 1.000000 1.000000
1.59500003 1.53199995 3.93700004 1.000000 1.000000
1.81599998 1.24199998 4.83500004 1.000000 1.000000
1.50999999 1.91199994 4.40500021 1.000000 1.000000
1.83899999 1.33800006 5.31400013 1.000000 1.000000
1.45299995 0.78899997 3.64700007 1.000000 1.000000
1.18299997 1.38399994 3.28600001 1.000000 1.000000
1.05200005 1.71000004 3.22300005 1.000000 1.000000
0.95499998 1.97200000 3.24099994 1.000000 1.000000
0.69900000 2.54299998 2.91599989 1.000000 1.000000
1.02800000 1.97599995 3.83100009 1.000000 1.000000
1.65600002 0.37200001 2.34699988 1.000000 1.000000
1.52300000 0.70300001 2.28099990 1.000000 1.000000
1.24600005 1.38800001 2.13400006 1.000000 1.000000
1.18499994 1.57700002 2.21900010 1.000000 1.000000
1.77600002 0.49900001 3.70499992 1.000000 1.000000
1.62300003 0.87000000 3.59800005 1.000000 1.000000
1.28299999 1.67799997 3.30900002 1.000000 1.000000
1.78299999 0.77399999 4.59200001 1.000000 1.000000
1.24699998 1.89100003 3.68300009 1.000000 1.000000
1.07200003 2.30599999 3.52600002 1.000000 1.000000
1.51400006 1.50999999 4.66800022 1.000000 1.000000
0.90600002 1.63600004 3.60400009 1.000000 1.000000
1.33599997 0.64800000 2.28900003 1.000000 1.000000
1.05200005 1.34399998 2.11800003 1.000000 1.000000
0.59700000 1.19500005 2.96900010 1.000000 1.000000
0.62199998 1.36199999 3.67300010 1.000000 1.000000
0.45199999 1.08099997 3.04699993 1.000000 1.000000
0.36899999 1.53799999 3.75099993 1.000000 1.000000
0.13000000 1.55499995 3.76500010 1.000000 1.000000
0.17600000 1.37800002 3.74200010 1.000000 1.000000
0.28099999 1.00699997 3.15499997 1.000000 1.000000
3.22000003 1.32599998 3.52099991 1.000000 1.000000
3.27300000 1.12399995 3.54399991 1.000000 1.000000
3.19400001 1.45000005 2.41799998 1.000000 1.000000
2.88700008 2.59200001 3.59100008 1.000000 1.000000
3.10700011 1.74399996 4.03499985 1.000000 1.000000
3.16499996 1.52499998 4.09399986 1.000000 1.000000
3.19300008 1.41900003 3.96399999 1.000000 1.000000
3.19400001 1.42400002 3.66799998 1.000000 1.000000
2.61500001 3.07800007 3.51200008 1.000000 1.000000
2.65100002 2.94700003 3.12700009 1.000000 1.000000
2.98200011 1.67100000 3.94099998 1.000000 1.000000
3.03800011 1.45500004 3.98200011 1.000000 1.000000
3.08100009 1.29100001 3.94600010 1.000000 1.000000
3.03099990 1.49300003 3.33400011 1.000000 1.000000
3.06900001 1.35000002 3.26900005 1.000000 1.000000
3.15400004 1.02499998 3.48900008 1.000000 1.000000
3.17799997 0.94199997 3.02600002 1.000000 1.000000
2.33500004 3.42199993 3.17799997 1.000000 1.000000
2.45900011 2.93899989 3.63100004 1.000000 1.000000
3.08699989 0.54500002 3.57100010 1.000000 1.000000
3.14199996 0.33300000 3.62599993 1.000000 1.000000
3.17000008 0.22800000 3.49300003 1.000000 1.000000
2.26900005 2.84599996 4.87599993 1.000000 1.000000
2.30399990 2.71000004 4.80200005 1.000000 1.000000
2.36100006 2.49200010 4.84299994 1.000000 1.000000
2.45400000 2.13800001 5.10400009 1.000000 1.000000
2.41799998 2.27900004 4.59499979 1.000000 1.000000
2.50300002 1.96000004 4.50000000 1.000000 1.000000
2.54699993 1.78699994 4.48299980 1.000000 1.000000
2.60800004 1.55499995 4.55999994 1.000000 1.000000
2.51900005 1.90900004 3.70799994 1.000000 1.000000
2.61899996 1.52900004 3.71900010 1.000000 1.000000
2.62599993 1.50399995 3.45900011 1.000000 1.000000
2.66700006 1.34800005 3.40499997 1.000000 1.000000
2.69000006 1.26400006 3.24699998 1.000000 1.000000
2.71499991 1.16999996 3.10599995 1.000000 1.000000
2.71900010 1.16199994 2.81299996 1.000000 1.000000
2.77500010 0.94599998 2.86899996 1.000000 1.000000
2.84500003 0.67400002 3.00200009 1.000000 1.000000
2.90000010 0.46700001 3.03500009 1.000000 1.000000
2.96099997 0.22900000 3.11700010 1.000000 1.000000
2.13100004 2.77399993 4.86899996 1.000000 1.000000
2.35400009 1.91299999 5.59899998 1.000000 1.000000
2.35100007 1.93099999 5.28399992 1.000000 1.000000
2.35500002 1.91999996 4.74300003 1.000000 1.000000
2.29900002 2.14100003 4.10699987 1.000000 1.000000
2.39400005 1.77400005 4.38999987 1.000000 1.000000
2.44499993 1.58200002 4.39400005 1.000000 1.000000
2.39000010 1.80100000 3.75399995 1.000000 1.000000
2.40499997 1.75000000 3.53500009 1.000000 1.000000
2.43899989 1.61899996 3.45199990 1.000000 1.000000
2.47600007 1.47899997 3.38800001 1.000000 1.000000
2.51399994 1.33200002 3.31800008 1.000000 1.000000
2.52800012 1.27999997 3.10999990 1.000000 1.000000
2.53999996 1.24199998 2.86599994 1.000000 1.000000
2.57999992 1.09000003 2.80500007 1.000000 1.000000
2.64400005 0.84399998 2.89400005 1.000000 1.000000
2.68899989 0.66900003 2.88400006 1.000000 1.000000
2.74799991 0.44200000 2.96099997 1.000000 1.000000
2.16599989 2.10200000 5.91699982 1.000000 1.000000
2.20000005 1.97500002 5.55999994 1.000000 1.000000
2.21600008 1.91799998 5.35900021 1.000000 1.000000
2.19799995 1.99199998 4.96700001 1.000000 1.000000
2.25099993 1.78900003 4.98799992 1.000000 1.000000
2.22900009 1.88100004 4.55299997 1.000000 1.000000
2.23499990 1.86500001 3.99399996 1.000000 1.000000
2.25600004 1.79700005 3.51200008 1.000000 1.000000
2.28699994 1.67900002 3.41000009 1.000000 1.000000
2.31399989 1.57500005 3.27399993 1.000000 1.000000
2.33500004 1.49699998 3.09500003 1.000000 1.000000
2.38899994 1.29100001 3.11899996 1.000000 1.000000
2.40700006 1.22899997 2.92600012 1.000000 1.000000
2.43400002 1.12600005 2.79800010 1.000000 1.000000
2.48900008 0.91600001 2.83100009 1.000000 1.000000
2.54099989 0.71600002 2.86100006 1.000000 1.000000
2.59500003 0.51200002 2.88700008 1.000000 1.000000
2.64000010 0.33700001 2.86500001 1.000000 1.000000
2.21000004 1.70799994 3.64899993 1.000000 1.000000
2.23900008 1.60099995 3.51799989 1.000000 1.000000
2.24900007 1.56599998 3.27500010 1.000000 1.000000
2.27500010 1.46800005 3.13899994 1.000000 1.000000
2.31900001 1.29799998 3.11899996 1.000000 1.000000
2.33699989 1.23599994 2.91499996 1.000000 1.000000
2.36500001 1.13199997 2.78900003 1.000000 1.000000
2.41599989 0.93400002 2.79900002 1.000000 1.000000
2.45700002 0.77700001 2.74499989 1.000000 1.000000
2.55200005 0.41400000 2.73399997 1.000000 1.000000
2.11599994 2.02300000 6.03999996 1.000000 1.000000
2.14499998 1.91400003 5.92000008 1.000000 1.000000
2.13499999 1.96700001 5.27600002 1.000000 1.000000
2.15300012 1.90100002 5.08699989 1.000000 1.000000
2.14400005 1.94500005 4.44600010 1.000000 1.000000
2.13199997 1.99800003 4.07999992 1.000000 1.000000
2.15199995 1.92299998 3.89899993 1.000000 1.000000
2.03399992 1.87500000 5.47300005 1.000000 1.000000
2.00900006 1.98399997 4.73999977 1.000000 1.000000
2.05299997 1.81400001 4.71999979 1.000000 1.000000
2.04999995 1.83099997 4.39699984 1.000000 1.000000
2.05100012 1.83299994 4.09899998 1.000000 1.000000
2.08599997 1.70200002 4.00500011 1.000000 1.000000
2.13400006 1.51800001 4.00899982 1.000000 1.000000
2.14700007 1.47300005 3.79299998 1.000000 1.000000
2.10999990 1.62699997 3.24799991 1.000000 1.000000
2.20600009 1.25000000 3.55599999 1.000000 1.000000
2.18400002 1.34300005 3.10400009 1.000000 1.000000
2.19300008 1.32000005 2.83599997 1.000000 1.000000
2.22199988 1.20799994 2.70900011 1.000000 1.000000
2.28399992 0.96899998 2.80100012 1.000000 1.000000
2.31399989 0.85699999 2.68700004 1.000000 1.000000
2.35700011 0.69099998 2.64800000 1.000000 1.000000
2.05699992 1.88499999 0.38600001 1.000000 1.000000
1.86800003 1.89400005 5.84200001 1.000000 1.000000
1.89100003 1.80999994 5.68400002 1.000000 1.000000
1.94700003 1.59599996 5.73299980 1.000000 1.000000
1.90199995 1.78799999 4.56799984 1.000000 1.000000
1.92799997 1.69200003 4.43499994 1.000000 1.000000
1.94500005 1.62899995 4.24800014 1.000000 1.000000
1.98800004 1.46399999 4.20900011 1.000000 1.000000
2.01900005 1.34700000 4.10799980 1.000000 1.000000
2.04999995 1.23300004 3.99000001 1.000000 1.000000
2.02600002 1.33000004 3.53500009 1.000000 1.000000
2.10700011 1.01800001 3.73099995 1.000000 1.000000
