4.43300009 2.78500009 4.12099981 1.000000 1.000000
4.93200016 3.08400011 7.55399990 1.000000 1.000000
5.24599981 3.31399989 9.76599979 1.000000 1.000000
4.88899994 3.21600008 7.45900011 1.000000 1.000000
5.22700024 3.44600010 9.81900024 1.000000 1.000000
4.68699980 3.45400000 6.50899982 1.000000 1.000000
4.73999977 3.60899997 7.03200006 1.000000 1.000000
4.70699978 3.74900007 7.00199986 1.000000 1.000000
5.25000000 2.74900007 8.26399994 1.000000 1.000000
5.40799999 2.93899989 9.46599960 1.000000 1.000000
5.04199982 3.11599994 7.44700003 1.000000 1.000000
5.07800007 3.27399993 7.86100006 1.000000 1.000000
4.52600002 3.12400007 4.29699993 1.000000 1.000000
4.54600000 3.28299999 4.61399984 1.000000 1.000000
4.96400023 3.53800011 7.49200010 1.000000 1.000000
4.77699995 3.92199993 6.82900000 1.000000 1.000000
4.71999979 4.19899988 6.82600021 1.000000 1.000000
5.19999981 4.42199993 10.04100037 1.000000 1.000000
4.69799995 4.34100008 6.86700010 1.000000 1.000000
5.40399981 2.78900003 8.47099972 1.000000 1.000000
5.22800016 3.02300000 7.68100023 1.000000 1.000000
4.64900017 3.16199994 4.30999994 1.000000 1.000000
5.00699997 3.54999995 6.98500013 1.000000 1.000000
4.94700003 3.82599998 6.96199989 1.000000 1.000000
4.92000008 3.96099997 6.96000004 1.000000 1.000000
4.91599989 4.10699987 7.12500000 1.000000 1.000000
4.85300016 4.24200010 6.90299988 1.000000 1.000000
4.93100023 3.35100007 4.61299992 1.000000 1.000000
5.25799990 3.58299994 6.93100023 1.000000 1.000000
5.22300005 3.71700001 6.88700008 1.000000 1.000000
5.19899988 3.85899997 6.91900015 1.000000 1.000000
5.33300018 3.27800012 5.65500021 1.000000 1.000000
5.37400007 4.16099977 7.02699995 1.000000 1.000000
5.41599989 3.83999991 4.39300013 1.000000 1.000000
5.43300009 3.17700005 4.80900002 1.000000 1.000000
5.28499985 3.59299994 4.41300011 1.000000 1.000000
5.24800014 3.73099995 4.35900021 1.000000 1.000000
5.35599995 3.90700006 5.26200008 1.000000 1.000000
5.43100023 3.78900003 4.44099998 1.000000 1.000000
5.41200018 3.89899993 4.22900009 1.000000 1.000000
5.46199989 3.79299998 4.42399979 1.000000 1.000000
5.42500019 3.84100008 4.41499996 1.000000 1.000000
5.43100023 3.78200006 4.31899977 1.000000 1.000000
5.38399982 3.82599998 4.55600023 1.000000 1.000000
5.28499985 3.72499990 4.44500017 1.000000 1.000000
5.27199984 3.57100010 4.51399994 1.000000 1.000000
5.57200003 2.57299995 10.01399994 1.000000 1.000000
5.52899981 2.04999995 10.40200043 1.000000 1.000000
5.60099983 4.35900021 10.03800011 1.000000 1.000000
5.54199982 4.62200022 10.00500011 1.000000 1.000000
5.71099997 1.96700001 7.70100021 1.000000 1.000000
5.61299992 2.95700002 8.34599972 1.000000 1.000000
5.64599991 3.67700005 9.45800018 1.000000 1.000000
5.53800011 3.40100002 10.04800034 1.000000 1.000000
5.68699980 3.54600000 6.87699986 1.000000 1.000000
6.00899982 4.45699978 10.06099987 1.000000 1.000000
5.72499990 2.95400000 7.68900013 1.000000 1.000000
5.47599983 3.60700011 6.96099997 1.000000 1.000000
5.80000019 4.38199997 9.96599960 1.000000 1.000000
5.88500023 2.91799998 6.16300011 1.000000 1.000000
5.89099979 3.36999989 6.77899981 1.000000 1.000000
5.88700008 3.51099992 6.93499994 1.000000 1.000000
5.80299997 2.83899999 6.69700003 1.000000 1.000000
5.78700018 2.98399997 6.78999996 1.000000 1.000000
5.64099979 3.08400011 5.99399996 1.000000 1.000000
5.91599989 3.56599998 6.91499996 1.000000 1.000000
5.89499998 2.86599994 6.16099977 1.000000 1.000000
5.94299984 3.31900001 7.03499985 1.000000 1.000000
5.89599991 3.45400000 6.91400003 1.000000 1.000000
5.87300014 3.59100008 6.94399977 1.000000 1.000000
5.82999992 3.72900009 6.85200024 1.000000 1.000000
6.23500013 4.10599995 9.84399986 1.000000 1.000000
5.91699982 3.60700011 6.96000004 1.000000 1.000000
5.86000013 3.73600006 6.77600002 1.000000 1.000000
5.92600012 2.86500001 6.09600019 1.000000 1.000000
5.97499990 3.32299995 6.96000004 1.000000 1.000000
5.88800001 2.96700001 5.98899984 1.000000 1.000000
5.97200012 3.28699994 6.91400003 1.000000 1.000000
5.88100004 3.40799999 6.50600004 1.000000 1.000000
5.89799976 2.98300004 6.03200006 1.000000 1.000000
5.98500013 3.30500007 6.95400000 1.000000 1.000000
5.79099989 3.40499997 5.90299988 1.000000 1.000000
5.68499994 3.67499995 5.60200024 1.000000 1.000000
5.90799999 2.91100001 6.13399982 1.000000 1.000000
5.98799992 3.22300005 6.97800016 1.000000 1.000000
5.94799995 3.36199999 6.90199995 1.000000 1.000000
5.91099977 3.64400005 7.02799988 1.000000 1.000000
5.91099977 2.85500002 6.04600000 1.000000 1.000000
5.83799982 2.98499990 5.76700020 1.000000 1.000000
5.97900009 3.31999993 7.01000023 1.000000 1.000000
5.75500011 3.40700006 5.78299999 1.000000 1.000000
5.91800022 3.59599996 6.98299980 1.000000 1.000000
5.87500000 3.72900009 6.88899994 1.000000 1.000000
5.85599995 2.03600001 4.71700001 1.000000 1.000000
5.90299988 2.95799994 6.07499981 1.000000 1.000000
5.99100018 3.28500009 6.96899986 1.000000 1.000000
5.76499987 3.37700009 5.77099991 1.000000 1.000000
5.84499979 3.68400002 6.60200024 1.000000 1.000000
5.59899998 3.58400011 5.67700005 1.000000 1.000000
5.75600004 3.76300001 6.76499987 1.000000 1.000000
5.72100019 4.04400015 6.88700008 1.000000 1.000000
5.89300013 2.90499997 6.38299990 1.000000 1.000000
5.90299988 3.20199990 6.78399992 1.000000 1.000000
5.90999985 3.34699988 6.98999977 1.000000 1.000000
6.36100006 3.60500002 9.85700035 1.000000 1.000000
5.80000019 3.46900010 6.50899982 1.000000 1.000000
5.85599995 3.62500000 7.00899982 1.000000 1.000000
5.80100012 3.76099992 6.85500002 1.000000 1.000000
5.82600021 2.95600009 6.56699991 1.000000 1.000000
5.80700016 3.40100002 6.96199989 1.000000 1.000000
6.30800009 3.66000009 10.01799965 1.000000 1.000000
5.77199984 3.53600001 6.92299986 1.000000 1.000000
5.52400017 3.62400007 5.65299988 1.000000 1.000000
5.86899996 2.90199995 6.41400003 1.000000 1.000000
5.86800003 3.19700003 6.74300003 1.000000 1.000000
5.87099981 3.34800005 6.93300009 1.000000 1.000000
5.82100010 3.48499990 6.80499983 1.000000 1.000000
5.81899977 2.97700000 6.57600021 1.000000 1.000000
5.80299997 3.41499996 6.97800016 1.000000 1.000000
5.75899982 3.55399990 6.89499998 1.000000 1.000000
5.81400013 2.96000004 6.77799988 1.000000 1.000000
5.57999992 3.04099989 5.59700012 1.000000 1.000000
6.25500011 3.64299989 9.93900013 1.000000 1.000000
5.72800016 3.52200007 6.93800020 1.000000 1.000000
5.87799978 2.96600008 6.29099989 1.000000 1.000000
5.82800007 3.24399996 6.32399988 1.000000 1.000000
5.89099979 3.40899992 6.84800005 1.000000 1.000000
5.58900023 3.48300004 5.30700016 1.000000 1.000000
5.82000017 3.68499994 6.77500010 1.000000 1.000000
5.78499985 3.82599998 6.73500013 1.000000 1.000000
5.81599998 2.30500007 3.43400002 1.000000 1.000000
6.04600000 2.99499989 5.43699980 1.000000 1.000000
6.26800013 3.19899988 6.86499977 1.000000 1.000000
6.20100021 3.61800003 6.97499990 1.000000 1.000000
5.95900011 2.95300007 5.63600016 1.000000 1.000000
6.13100004 3.15199995 6.78000021 1.000000 1.000000
6.06799984 3.28600001 6.59200001 1.000000 1.000000
5.85099983 3.52999997 5.69600010 1.000000 1.000000
5.72900009 3.79999995 5.32900000 1.000000 1.000000
5.52400017 3.90599990 4.34100008 1.000000 1.000000
6.25500011 2.65000010 5.77600002 1.000000 1.000000
6.13299990 2.91499996 5.41499996 1.000000 1.000000
6.36800003 3.12400007 6.91200018 1.000000 1.000000
6.37200022 3.27399993 7.09800005 1.000000 1.000000
5.74100018 3.57599998 4.03800011 1.000000 1.000000
5.71999979 3.71900010 4.09000015 1.000000 1.000000
5.79500008 4.03499985 4.83500004 1.000000 1.000000
6.17199993 3.75999999 6.97100019 1.000000 1.000000
5.74900007 3.82299995 4.76100016 1.000000 1.000000
5.76700020 3.97900009 5.02500010 1.000000 1.000000
6.41800022 2.74799991 5.83699989 1.000000 1.000000
6.11899996 2.96900010 4.48600006 1.000000 1.000000
6.37400007 2.80999994 6.03700018 1.000000 1.000000
6.44000006 3.12500000 6.74300003 1.000000 1.000000
6.08300018 3.02999997 4.72499990 1.000000 1.000000
6.48899984 3.28299999 7.18200016 1.000000 1.000000
6.66200018 2.98399997 6.85599995 1.000000 1.000000
6.15299988 2.99200010 4.15999985 1.000000 1.000000
6.26499987 3.46000004 5.80399990 1.000000 1.000000
6.23500013 2.96199989 3.33299994 1.000000 1.000000
6.19299984 3.10899997 3.26799989 1.000000 1.000000
6.33699989 3.10200000 2.57999992 1.000000 1.000000
7.23199987 3.62599993 7.99100018 1.000000 1.000000
6.50600004 3.05599999 1.77300000 1.000000 1.000000
6.60599995 3.09100008 1.33000004 1.000000 1.000000
6.65999985 3.19400001 0.87699997 1.000000 1.000000
2.74699998 3.10999990 16.65200043 1.000000 1.000000
3.50099993 2.42000008 16.39399910 1.000000 1.000000
3.03399992 4.65100002 16.05699921 1.000000 1.000000
3.62299991 2.50399995 16.10000038 1.000000 1.000000
3.60500002 2.62100005 16.12199974 1.000000 1.000000
3.89899993 2.98000002 16.12800026 1.000000 1.000000
5.38999987 3.77699995 4.31500006 1.000000 1.000000
5.40500021 2.37199998 7.59999990 1.000000 1.000000
5.40799999 2.10400009 7.90799999 1.000000 1.000000
5.39799976 3.15100002 5.13399982 1.000000 1.000000
5.40899992 2.03500009 7.68200016 1.000000 1.000000
5.36999989 4.67899990 9.88899994 1.000000 1.000000
5.38999987 3.17400002 9.84599972 1.000000 1.000000
5.39300013 3.06900001 9.72700024 1.000000 1.000000
5.39400005 2.92100000 9.71100044 1.000000 1.000000
5.39599991 2.89599991 9.01599979 1.000000 1.000000
5.39699984 2.94499993 7.32000017 1.000000 1.000000
5.23299980 1.94799995 7.56599998 1.000000 1.000000
5.23000002 2.43799996 4.99200010 1.000000 1.000000
5.19099998 4.59399986 13.82999992 1.000000 1.000000
5.19399977 4.42799997 13.23600006 1.000000 1.000000
5.19899988 4.06699991 13.05099964 1.000000 1.000000
5.21299982 3.27900004 10.00100040 1.000000 1.000000
5.21600008 3.02500010 10.24600029 1.000000 1.000000
5.21700001 2.95600009 10.04199982 1.000000 1.000000
5.21899986 2.92700005 9.75000000 1.000000 1.000000
5.21999979 2.74000001 9.84799957 1.000000 1.000000
5.21099997 3.65400004 7.16300011 1.000000 1.000000
5.21899986 3.03500009 7.54600000 1.000000 1.000000
5.22599983 2.45799994 7.85099983 1.000000 1.000000
5.22800016 2.29999995 7.85699987 1.000000 1.000000
5.21400023 3.64000010 4.33500004 1.000000 1.000000
5.15000010 2.92400002 10.57100010 1.000000 1.000000
5.15199995 2.91499996 10.23099995 1.000000 1.000000
5.15199995 2.98499990 9.69400024 1.000000 1.000000
5.15500021 2.76900005 9.85200024 1.000000 1.000000
5.14599991 3.87700009 7.08300018 1.000000 1.000000
5.15999985 2.27900004 10.33199978 1.000000 1.000000
5.15700006 2.87700009 8.02499962 1.000000 1.000000
5.15799999 2.88000011 7.63000011 1.000000 1.000000
5.15999985 2.67300010 7.77600002 1.000000 1.000000
5.16200018 2.49600005 7.82900000 1.000000 1.000000
5.16499996 2.24399996 8.09700012 1.000000 1.000000
5.16599989 2.19000006 7.82900000 1.000000 1.000000
5.15700006 3.48099995 4.42299986 1.000000 1.000000
5.05999994 4.44700003 13.21500015 1.000000 1.000000
5.07299995 3.60299993 12.79100037 1.000000 1.000000
5.07399988 3.51200008 12.65600014 1.000000 1.000000
5.08900023 2.90499997 10.58199978 1.000000 1.000000
5.08500004 4.15899992 7.11499977 1.000000 1.000000
5.08900023 3.88100004 7.03000021 1.000000 1.000000
5.09600019 3.14199996 7.70800018 1.000000 1.000000
5.09899998 2.91799998 7.89499998 1.000000 1.000000
5.10099983 2.84500003 7.68100023 1.000000 1.000000
5.10300016 2.64100003 7.81699991 1.000000 1.000000
5.10400009 2.48000002 7.83099985 1.000000 1.000000
5.10699987 2.13000011 8.33500004 1.000000 1.000000
5.10900021 2.15700006 7.85500002 1.000000 1.000000
5.10400009 3.47000003 4.39300013 1.000000 1.000000
5.11600018 2.41599989 4.65000010 1.000000 1.000000
4.93200016 3.09299994 10.63000011 1.000000 1.000000
4.93599987 2.95000005 9.86699963 1.000000 1.000000
4.93100023 4.11600018 6.98199987 1.000000 1.000000
4.93800020 2.80200005 9.85499954 1.000000 1.000000
4.93499994 3.82599998 6.90899992 1.000000 1.000000
4.93800020 3.40700006 7.57700014 1.000000 1.000000
4.94199991 2.99499989 7.83900023 1.000000 1.000000
4.94500017 2.76500010 8.04100037 1.000000 1.000000
4.94600010 2.72300005 7.74599981 1.000000 1.000000
4.95200014 2.04099989 8.32100010 1.000000 1.000000
4.95400000 1.96700001 8.12300014 1.000000 1.000000
4.95900011 1.63199997 7.79300022 1.000000 1.000000
4.96000004 2.42300010 4.35200024 1.000000 1.000000
4.90199995 4.37599993 14.45899963 1.000000 1.000000
4.92299986 3.42400002 11.97000027 1.000000 1.000000
4.92700005 3.02200007 12.22299957 1.000000 1.000000
4.92799997 2.99600005 11.92899990 1.000000 1.000000
4.92999983 2.91400003 11.76599979 1.000000 1.000000
4.77099991 3.30599999 13.51200008 1.000000 1.000000
4.77199984 3.20799994 13.41100025 1.000000 1.000000
4.77600002 3.05399990 13.09700012 1.000000 1.000000
4.77600002 3.09999990 12.64299965 1.000000 1.000000
4.77699995 3.08699989 12.32299995 1.000000 1.000000
4.77899981 2.98900008 12.20300007 1.000000 1.000000
4.78000021 3.01099992 11.80799961 1.000000 1.000000
4.78100014 3.19400001 10.65699959 1.000000 1.000000
4.78599977 2.99699998 10.03800011 1.000000 1.000000
4.78000021 4.26000023 6.93100023 1.000000 1.000000
4.78700018 2.95499992 9.76399994 1.000000 1.000000
4.78900003 2.77500010 9.84300041 1.000000 1.000000
4.78399992 3.91599989 7.00500011 1.000000 1.000000
4.79199982 2.50500011 10.14999962 1.000000 1.000000
4.78800011 3.57999992 7.06300020 1.000000 1.000000
4.79099989 3.30500007 7.37200022 1.000000 1.000000
4.79400015 2.90499997 7.98899984 1.000000 1.000000
4.79500008 3.05900002 7.19199991 1.000000 1.000000
4.79699993 2.71900010 7.65799999 1.000000 1.000000
4.79899979 2.56800008 7.65700006 1.000000 1.000000
4.80000019 3.06299996 5.55000019 1.000000 1.000000
4.81099987 1.46500003 8.14799976 1.000000 1.000000
4.81300020 1.28699994 8.22900009 1.000000 1.000000
4.81199980 2.34500003 4.49599981 1.000000 1.000000
4.81300020 2.17899990 4.52299976 1.000000 1.000000
4.56599998 2.98799992 14.92000008 1.000000 1.000000
4.56699991 2.96199989 14.66199970 1.000000 1.000000
4.56699991 3.05500007 14.11900043 1.000000 1.000000
4.56799984 3.03699994 13.83699989 1.000000 1.000000
4.56899977 3.03500009 13.50300026 1.000000 1.000000
4.56799984 3.19400001 12.78999996 1.000000 1.000000
4.56899977 3.26600003 12.27099991 1.000000 1.000000
4.56899977 3.41599989 11.57800007 1.000000 1.000000
4.56899977 3.45499992 10.77600002 1.000000 1.000000
4.57600021 2.83599997 11.54800034 1.000000 1.000000
4.57999992 2.50699997 11.61900043 1.000000 1.000000
4.56699991 4.42700005 6.93499994 1.000000 1.000000
4.57800007 2.98099995 9.74199963 1.000000 1.000000
4.57900000 3.28699994 7.42299986 1.000000 1.000000
4.58400011 2.84999990 8.13300037 1.000000 1.000000
4.58300018 3.05800009 7.21700001 1.000000 1.000000
4.59299994 1.97899997 8.42599964 1.000000 1.000000
4.58599997 3.24300003 4.67999983 1.000000 1.000000
4.59700012 1.64900005 8.48200035 1.000000 1.000000
4.59000015 3.07999992 4.25500011 1.000000 1.000000
4.59999990 1.44500005 8.23200035 1.000000 1.000000
4.59200001 2.78500009 4.62300014 1.000000 1.000000
4.60500002 0.98900002 8.65299988 1.000000 1.000000
4.60699987 0.82800001 8.67899990 1.000000 1.000000
4.59700012 2.37100005 4.44199991 1.000000 1.000000
4.59899998 2.23300004 4.37599993 1.000000 1.000000
4.60300016 1.90600002 4.40299988 1.000000 1.000000
4.47100019 3.44799995 7.39200020 1.000000 1.000000
4.47300005 3.25300002 7.48500013 1.000000 1.000000
4.47599983 2.81399989 8.21399975 1.000000 1.000000
4.47599983 3.23900008 6.74499989 1.000000 1.000000
4.48299980 2.04500008 9.03100014 1.000000 1.000000
4.48799992 1.76800001 8.55399990 1.000000 1.000000
4.48999977 1.64499998 8.48799992 1.000000 1.000000
4.49300003 1.33599997 8.91600037 1.000000 1.000000
4.49399996 1.25699997 8.71599960 1.000000 1.000000
4.48799992 2.84200001 4.45300007 1.000000 1.000000
4.48899984 2.83999991 4.03100014 1.000000 1.000000
4.44000006 5.18300009 10.59799957 1.000000 1.000000
4.45400000 3.09400010 14.64999962 1.000000 1.000000
4.45499992 3.11199999 14.27799988 1.000000 1.000000
4.45599985 3.05699992 14.08500004 1.000000 1.000000
4.45699978 3.04099989 13.78600025 1.000000 1.000000
4.45699978 3.34299994 12.74699974 1.000000 1.000000
4.45800018 3.29800010 12.50599957 1.000000 1.000000
4.45699978 3.58800006 11.49100018 1.000000 1.000000
4.46400023 2.83999991 12.56099987 1.000000 1.000000
4.45699978 4.44299984 8.02000046 1.000000 1.000000
4.46600008 2.80500007 11.58500004 1.000000 1.000000
4.46700001 3.06500006 10.23299980 1.000000 1.000000
4.47100019 2.89100003 9.93000031 1.000000 1.000000
4.46799994 3.75699997 7.01700020 1.000000 1.000000
4.38100004 3.60899997 10.92599964 1.000000 1.000000
4.38399982 2.75099993 12.60000038 1.000000 1.000000
4.38899994 3.36599994 9.69900036 1.000000 1.000000
4.38700008 4.52699995 6.87900019 1.000000 1.000000
4.39200020 2.47199988 11.51900005 1.000000 1.000000
4.39400005 2.42600012 11.26500034 1.000000 1.000000
4.39499998 2.80399990 9.95800018 1.000000 1.000000
4.39599991 3.68300009 7.01100016 1.000000 1.000000
4.39799976 3.39499998 7.34800005 1.000000 1.000000
4.40199995 1.85300004 10.85299969 1.000000 1.000000
4.40100002 3.30500007 6.78700018 1.000000 1.000000
4.49100018 2.62100005 4.18599987 1.000000 1.000000
4.49300003 2.42300010 4.28000021 1.000000 1.000000
4.49499989 2.25300002 4.30299997 1.000000 1.000000
4.49800014 1.92499995 4.35099983 1.000000 1.000000
4.41800022 1.18400002 9.12699986 1.000000 1.000000
4.41900015 2.74000001 4.08099985 1.000000 1.000000
4.42100000 2.55299997 4.15999985 1.000000 1.000000
4.42299986 2.39000010 4.17899990 1.000000 1.000000
4.43200016 1.57599998 4.20400000 1.000000 1.000000
4.37099981 3.07999992 14.85000038 1.000000 1.000000
4.37300014 3.01699996 14.66399956 1.000000 1.000000
4.37400007 3.04399991 14.27099991 1.000000 1.000000
4.37799978 3.36400008 12.54399967 1.000000 1.000000
4.37900019 3.52600002 11.47700024 1.000000 1.000000
4.26300001 3.49099994 12.85599995 1.000000 1.000000
4.26499987 3.26200008 13.05500031 1.000000 1.000000
4.26300001 5.26499987 8.43700027 1.000000 1.000000
4.26599979 3.50600004 12.14799976 1.000000 1.000000
4.26800013 3.66400003 11.43099976 1.000000 1.000000
4.26999998 3.63599992 11.14000034 1.000000 1.000000
4.27099991 3.60899997 10.86100006 1.000000 1.000000
4.27400017 2.94300008 12.09200001 1.000000 1.000000
4.27699995 2.81999993 11.68000031 1.000000 1.000000
4.28000021 3.09599996 10.28299999 1.000000 1.000000
4.28200006 2.48600006 11.39900017 1.000000 1.000000
4.28100014 3.95199990 7.81599998 1.000000 1.000000
4.28399992 2.43799996 11.16699982 1.000000 1.000000
4.28399992 4.17399979 6.90000010 1.000000 1.000000
4.28499985 3.86800003 7.27699995 1.000000 1.000000
4.28700018 3.66100001 7.39599991 1.000000 1.000000
4.40399981 2.84400010 7.56099987 1.000000 1.000000
4.40799999 2.13800001 8.58100033 1.000000 1.000000
4.40999985 2.08500004 8.33399963 1.000000 1.000000
4.41200018 3.23499990 4.49300003 1.000000 1.000000
4.29400015 2.95099998 7.60099983 1.000000 1.000000
4.29600000 2.89499998 7.35799980 1.000000 1.000000
4.29799986 2.55200005 7.85099983 1.000000 1.000000
4.30000019 1.88699996 9.17199993 1.000000 1.000000
4.30200005 2.05299997 8.35900021 1.000000 1.000000
4.30600023 3.20400000 4.50000000 1.000000 1.000000
4.30700016 1.48399997 8.64500046 1.000000 1.000000
4.30800009 1.14800000 9.14900017 1.000000 1.000000
4.31300020 2.76500010 3.95799994 1.000000 1.000000
4.31799984 2.39599991 4.09200001 1.000000 1.000000
4.31899977 2.20600009 4.16300011 1.000000 1.000000
4.32100010 2.08400011 4.05000019 1.000000 1.000000
4.32299995 1.87899995 4.18699980 1.000000 1.000000
4.25699997 3.15100002 15.26099968 1.000000 1.000000
4.25799990 3.14000010 14.96300030 1.000000 1.000000
4.25899982 3.12700009 14.66199970 1.000000 1.000000
4.13500023 3.10700011 15.69799995 1.000000 1.000000
4.13899994 3.16100001 14.63599968 1.000000 1.000000
4.14400005 3.39800000 13.11100006 1.000000 1.000000
4.14799976 3.59899998 11.96000004 1.000000 1.000000
4.15000010 3.92600012 10.86400032 1.000000 1.000000
4.15100002 3.80299997 10.80799961 1.000000 1.000000
4.15399981 3.56800008 11.00199986 1.000000 1.000000
4.15500021 2.62599993 12.88599968 1.000000 1.000000
4.15999985 4.61100006 7.03299999 1.000000 1.000000
4.16200018 3.12100005 10.26900005 1.000000 1.000000
4.28800011 3.50099993 7.41499996 1.000000 1.000000
4.28999996 3.30200005 7.51499987 1.000000 1.000000
4.29300022 1.86399996 10.75199986 1.000000 1.000000
4.29199982 3.09200001 7.64200020 1.000000 1.000000
4.16900015 2.39400005 10.59000015 1.000000 1.000000
4.17000008 3.53600001 7.75400019 1.000000 1.000000
4.17000008 2.20600009 10.68500042 1.000000 1.000000
4.17100000 3.53900003 7.35300016 1.000000 1.000000
4.17199993 2.02600002 10.75500011 1.000000 1.000000
4.17299986 3.29900002 7.55499983 1.000000 1.000000
4.17700005 3.02200007 7.48799992 1.000000 1.000000
4.17899990 2.93199992 7.31500006 1.000000 1.000000
4.17899990 1.49100006 10.63500023 1.000000 1.000000
4.18100023 2.54500008 7.92199993 1.000000 1.000000
4.18400002 1.72800004 9.23799992 1.000000 1.000000
4.18699980 1.68200004 8.57299995 1.000000 1.000000
4.19199991 1.02100003 9.14999962 1.000000 1.000000
4.19299984 0.82900000 9.26099968 1.000000 1.000000
4.19899988 0.61199999 8.62399960 1.000000 1.000000
4.19999981 0.48800001 8.56299973 1.000000 1.000000
4.20599985 1.92200005 4.12699986 1.000000 1.000000
4.20800018 1.80400002 4.02400017 1.000000 1.000000
4.00099993 3.15499997 15.96000004 1.000000 1.000000
4.00600004 3.04500008 15.27499962 1.000000 1.000000
4.01200008 3.47799993 13.31299973 1.000000 1.000000
4.01300001 2.57599998 15.04300022 1.000000 1.000000
4.01499987 4.28000021 10.81599998 1.000000 1.000000
4.01599979 2.68499994 14.14400005 1.000000 1.000000
4.01599979 3.53099990 12.18999958 1.000000 1.000000
4.01900005 3.89499998 11.01000023 1.000000 1.000000
4.02099991 2.73699999 13.01200008 1.000000 1.000000
4.02299976 2.56100011 13.07800007 1.000000 1.000000
4.03800011 3.77399993 7.61800003 1.000000 1.000000
4.03999996 3.62500000 7.61000013 1.000000 1.000000
4.04099989 3.64000010 7.19399977 1.000000 1.000000
4.04600000 2.76099992 8.22500038 1.000000 1.000000
4.05100012 3.00799990 6.79099989 1.000000 1.000000
4.05299997 2.17799997 8.15600014 1.000000 1.000000
4.05399990 1.76600003 8.82800007 1.000000 1.000000
4.06300020 3.11500001 4.02299976 1.000000 1.000000
4.06099987 1.19700003 8.72999954 1.000000 1.000000
4.06300020 0.82599998 8.94400024 1.000000 1.000000
4.06899977 2.70199990 3.84299994 1.000000 1.000000
4.06899977 0.47900000 8.66699982 1.000000 1.000000
4.07600021 1.92799997 4.20200014 1.000000 1.000000
4.07999992 1.73199999 3.86199999 1.000000 1.000000
4.08400011 1.40499997 3.88499999 1.000000 1.000000
3.84800005 3.68000007 14.25899982 1.000000 1.000000
3.85400009 3.53600001 13.60700035 1.000000 1.000000
3.85500002 3.48399997 13.40299988 1.000000 1.000000
3.85700011 4.38000011 11.02600002 1.000000 1.000000
3.85800004 2.48000002 15.03800011 1.000000 1.000000
3.85999990 3.56299996 12.21300030 1.000000 1.000000
3.86400008 2.75999999 13.05399990 1.000000 1.000000
3.86800003 2.39700007 13.22999954 1.000000 1.000000
3.87100005 2.63100004 11.98299980 1.000000 1.000000
3.87299991 3.13599992 10.40499973 1.000000 1.000000
3.87899995 2.78800011 10.16600037 1.000000 1.000000
3.88199997 3.93400002 6.95900011 1.000000 1.000000
3.88100004 2.25699997 10.74400043 1.000000 1.000000
3.88299990 3.77399993 6.97599983 1.000000 1.000000
3.88899994 3.33100009 6.88399982 1.000000 1.000000
3.89199996 2.75200009 7.58300018 1.000000 1.000000
3.89599991 1.79100001 8.88000011 1.000000 1.000000
3.89800000 1.72300005 8.65799999 1.000000 1.000000
3.89899993 1.69200003 8.33500004 1.000000 1.000000
3.90400004 1.09099996 8.75000000 1.000000 1.000000
3.90700006 0.67799997 9.06599998 1.000000 1.000000
3.91199994 2.60500002 3.80800009 1.000000 1.000000
3.91000009 0.53799999 8.61200047 1.000000 1.000000
3.91499996 2.34299994 3.62400007 1.000000 1.000000
3.91700006 2.14400005 3.74000001 1.000000 1.000000
3.61700010 3.59800005 14.07900047 1.000000 1.000000
3.61800003 4.34100008 11.39700031 1.000000 1.000000
3.62100005 4.25600004 10.91699982 1.000000 1.000000
3.62599993 3.80399990 10.91300011 1.000000 1.000000
3.63299990 2.26799989 13.48700047 1.000000 1.000000
3.63299990 3.17600012 10.62699986 1.000000 1.000000
3.64000010 2.69099998 10.33500004 1.000000 1.000000
3.63800001 3.76200008 7.33199978 1.000000 1.000000
3.64899993 2.70099998 7.65100002 1.000000 1.000000
3.65100002 2.39599991 8.04699993 1.000000 1.000000
3.65100002 2.73200011 6.78800011 1.000000 1.000000
3.65400004 1.98899996 8.31299973 1.000000 1.000000
3.65599990 1.56299996 9.04300022 1.000000 1.000000
3.65599990 3.28999996 3.64499998 1.000000 1.000000
3.66000009 1.37000000 8.34399986 1.000000 1.000000
3.66300011 1.07400000 8.74300003 1.000000 1.000000
3.66700006 0.35900000 9.48400021 1.000000 1.000000
3.66499996 2.57299995 3.40599990 1.000000 1.000000
3.66899991 0.18500000 9.55200005 1.000000 1.000000
3.67100000 0.06800000 9.46199989 1.000000 1.000000
3.67000008 2.08299994 3.40100002 1.000000 1.000000
3.67499995 1.47399998 3.78299999 1.000000 1.000000
3.50099993 3.61500001 14.10299969 1.000000 1.000000
3.50200009 4.43400002 11.61699963 1.000000 1.000000
3.50500011 3.27800012 13.89500046 1.000000 1.000000
3.50399995 4.35200024 11.12199974 1.000000 1.000000
3.50699997 3.66700006 12.33699989 1.000000 1.000000
3.51099992 2.11899996 15.54800034 1.000000 1.000000
3.51099992 3.82100010 10.96100044 1.000000 1.000000
3.51699996 2.14899993 13.84599972 1.000000 1.000000
3.51900005 3.17799997 10.69200039 1.000000 1.000000
3.52500010 2.71600008 10.38099957 1.000000 1.000000
3.52500010 3.77800012 7.38899994 1.000000 1.000000
3.52999997 2.36500001 10.12300014 1.000000 1.000000
3.53800011 2.75200009 6.82399988 1.000000 1.000000
3.53999996 2.09100008 8.13099957 1.000000 1.000000
3.54099989 1.90699995 8.22200012 1.000000 1.000000
3.54299998 1.25899994 9.53999996 1.000000 1.000000
3.54800010 1.23399997 8.40600014 1.000000 1.000000
3.35700011 3.17100000 10.75000000 1.000000 1.000000
3.55200005 0.50400001 9.16499996 1.000000 1.000000
3.55399990 0.29400000 9.34500027 1.000000 1.000000
3.55599999 0.11000000 9.44099998 1.000000 1.000000
3.38599992 1.09700000 8.80599976 1.000000 1.000000
3.38800001 0.75500000 9.31900024 1.000000 1.000000
3.39199996 2.50399995 3.28299999 1.000000 1.000000
3.39400005 2.35700011 3.23799992 1.000000 1.000000
3.40199995 1.67299998 2.90400004 1.000000 1.000000
3.32599998 4.53499985 14.95199966 1.000000 1.000000
3.33400011 3.82500005 14.92000008 1.000000 1.000000
3.33599997 3.58899999 15.12899971 1.000000 1.000000
3.33699989 3.71000004 14.54500008 1.000000 1.000000
3.33699989 4.70900011 11.69799995 1.000000 1.000000
3.34299994 4.41800022 10.99699974 1.000000 1.000000
3.34899998 2.22300005 15.65299988 1.000000 1.000000
3.34899998 3.80800009 11.00199986 1.000000 1.000000
3.34800005 5.11199999 7.60599995 1.000000 1.000000
3.34899998 5.01100016 7.48099995 1.000000 1.000000
3.35599995 2.12700009 13.92199993 1.000000 1.000000
3.35500002 3.36299992 10.64700031 1.000000 1.000000
3.16300011 4.82299995 15.11699963 1.000000 1.000000
3.17000008 4.03700018 15.24699974 1.000000 1.000000
3.17499995 3.66599989 15.12899971 1.000000 1.000000
3.17700005 3.51799989 14.81499958 1.000000 1.000000
3.17799997 3.62100005 14.26399994 1.000000 1.000000
3.17700005 4.70599985 10.86600018 1.000000 1.000000
3.18000007 4.55399990 10.87899971 1.000000 1.000000
3.36299992 2.67799997 10.48499966 1.000000 1.000000
3.36299992 4.00400019 6.86600018 1.000000 1.000000
3.36899996 2.25000000 10.07199955 1.000000 1.000000
3.36999989 2.88199997 8.09700012 1.000000 1.000000
3.37599993 2.75099993 6.86299992 1.000000 1.000000
3.38199997 1.71099997 8.36600018 1.000000 1.000000
3.38499999 0.76800001 10.07299995 1.000000 1.000000
2.96000004 3.74300003 12.46300030 1.000000 1.000000
2.95900011 4.13000011 10.90200043 1.000000 1.000000
2.96700001 2.78600001 13.32499981 1.000000 1.000000
2.97199988 2.02300000 14.76000023 1.000000 1.000000
2.96600008 3.49900007 10.96599960 1.000000 1.000000
2.96799994 3.21700001 11.28600025 1.000000 1.000000
2.96900010 3.18000007 11.02499962 1.000000 1.000000
2.97399998 2.39400005 12.53800011 1.000000 1.000000
3.19499993 1.73099995 14.68999958 1.000000 1.000000
3.19199991 3.45199990 10.62300014 1.000000 1.000000
3.19499993 2.54099989 12.42700005 1.000000 1.000000
3.19400001 4.20800018 7.71700001 1.000000 1.000000
3.20099998 2.61999989 10.46800041 1.000000 1.000000
3.21099997 2.39800000 7.98299980 1.000000 1.000000
3.21499991 1.43599999 9.67800045 1.000000 1.000000
3.21700001 1.29100001 9.67700005 1.000000 1.000000
3.22099996 1.19099998 8.77200031 1.000000 1.000000
3.22199988 1.07900000 8.66399956 1.000000 1.000000
3.22300005 0.95400000 8.59200001 1.000000 1.000000
3.23000002 2.22300005 2.98099995 1.000000 1.000000
2.97799993 2.84400010 8.54100037 1.000000 1.000000
2.98000002 2.77399993 8.32800007 1.000000 1.000000
2.98000002 2.94400001 7.10500002 1.000000 1.000000
2.98300004 2.46300006 7.94600010 1.000000 1.000000
2.99000001 1.44700003 9.78699970 1.000000 1.000000
2.99499989 0.92000002 10.00100040 1.000000 1.000000
2.99699998 0.77499998 9.60999966 1.000000 1.000000
2.99699998 0.95300001 8.73900032 1.000000 1.000000
3.00000000 0.80699998 8.33100033 1.000000 1.000000
2.99300003 2.56999993 3.06399989 1.000000 1.000000
3.00000000 2.00300002 2.83999991 1.000000 1.000000
2.94199991 4.61199999 15.93900013 1.000000 1.000000
2.94600010 4.40100002 15.47999954 1.000000 1.000000
2.94799995 4.27500010 15.45100021 1.000000 1.000000
2.94899988 4.12099981 15.46500015 1.000000 1.000000
2.95300007 3.85899997 15.10000038 1.000000 1.000000
2.95700002 3.59899998 14.41899967 1.000000 1.000000
2.94899988 5.01300001 10.97700024 1.000000 1.000000
2.95099998 4.94000006 10.79599953 1.000000 1.000000
2.70199990 3.50600004 14.73200035 1.000000 1.000000
2.69799995 3.91599989 12.53100014 1.000000 1.000000
2.71700001 1.99500000 15.57900047 1.000000 1.000000
2.70900011 2.81599998 13.36800003 1.000000 1.000000
2.72099996 1.69200003 15.65100002 1.000000 1.000000
2.71900010 1.87100005 14.90400028 1.000000 1.000000
2.68600011 5.39900017 6.66300011 1.000000 1.000000
2.71099997 2.74600005 12.52799988 1.000000 1.000000
2.68799996 5.14799976 6.88299990 1.000000 1.000000
2.70799994 3.13299990 11.26200008 1.000000 1.000000
2.69799995 4.21400023 7.58799982 1.000000 1.000000
2.70000005 4.02400017 7.67600012 1.000000 1.000000
2.71499991 2.49000001 10.67099953 1.000000 1.000000
2.71000004 3.02600002 8.59200001 1.000000 1.000000
2.71199989 2.87800002 7.82299995 1.000000 1.000000
2.71499991 2.63000011 8.05500031 1.000000 1.000000
2.71499991 2.61800003 7.70300007 1.000000 1.000000
2.71700001 2.42499995 7.79600000 1.000000 1.000000
2.73300004 0.80000001 10.07400036 1.000000 1.000000
2.73600006 0.59299999 9.84599972 1.000000 1.000000
2.96799994 3.99699998 7.58900023 1.000000 1.000000
2.64400005 2.22199988 2.82800007 1.000000 1.000000
2.59800005 4.33599997 15.38500023 1.000000 1.000000
2.59899998 4.20100021 15.37300014 1.000000 1.000000
2.60100007 4.08500004 15.31000042 1.000000 1.000000
2.60800004 3.32500005 16.01499939 1.000000 1.000000
2.60999990 3.27500010 15.82299995 1.000000 1.000000
2.60800004 3.50399995 14.70400047 1.000000 1.000000
2.60800004 3.92600012 12.79199982 1.000000 1.000000
2.62800002 1.61699998 15.77099991 1.000000 1.000000
2.71799994 2.54299998 2.86400008 1.000000 1.000000
2.72000003 2.40400004 2.79299998 1.000000 1.000000
2.72199988 2.25600004 2.76200008 1.000000 1.000000
2.69400001 4.15100002 15.19600010 1.000000 1.000000
2.69700003 3.94700003 15.33100033 1.000000 1.000000
2.70099998 3.47199988 15.74199963 1.000000 1.000000
2.70300007 3.38100004 15.63799953 1.000000 1.000000
2.40599990 2.40199995 10.74800014 1.000000 1.000000
2.39800000 3.27699995 8.22099972 1.000000 1.000000
2.39899993 3.16599989 8.10799980 1.000000 1.000000
2.40300012 2.71000004 8.49600029 1.000000 1.000000
2.40300012 2.76099992 7.97700024 1.000000 1.000000
2.40700006 2.37800002 8.56700039 1.000000 1.000000
2.40899992 2.18899989 8.65499973 1.000000 1.000000
2.40899992 2.28800011 8.00300026 1.000000 1.000000
2.42400002 0.75300002 10.05900002 1.000000 1.000000
2.40599990 2.63199997 2.91700006 1.000000 1.000000
2.61199999 3.85599995 10.57199955 1.000000 1.000000
2.62700009 1.93299997 14.71899986 1.000000 1.000000
2.62800002 1.79499996 14.72000027 1.000000 1.000000
2.62199998 2.65499997 12.70199966 1.000000 1.000000
2.61899996 3.13800001 11.21399975 1.000000 1.000000
2.62800002 2.00799990 13.20499992 1.000000 1.000000
2.61400008 4.13899994 7.73299980 1.000000 1.000000
2.62800002 2.46199989 10.70400047 1.000000 1.000000
2.62800002 2.80500007 8.34500027 1.000000 1.000000
2.62800002 2.78299999 8.00599957 1.000000 1.000000
2.63000011 2.65499997 7.95499992 1.000000 1.000000
2.63100004 2.55200005 7.83900023 1.000000 1.000000
2.63299990 2.42799997 7.75600004 1.000000 1.000000
2.64800000 0.77100003 10.10999966 1.000000 1.000000
2.64899993 0.76400000 9.35000038 1.000000 1.000000
2.19499993 2.95700002 13.70400047 1.000000 1.000000
2.18600011 3.61899996 11.86699963 1.000000 1.000000
2.19300008 3.09299994 12.72700024 1.000000 1.000000
2.18899989 3.35200000 11.78899956 1.000000 1.000000
2.19700003 2.71399999 12.92399979 1.000000 1.000000
2.19700003 2.66899991 12.36299992 1.000000 1.000000
2.16899991 4.92899990 7.04199982 1.000000 1.000000
2.20499992 1.95799994 13.36200047 1.000000 1.000000
2.20600009 1.84200001 13.29199982 1.000000 1.000000
2.19899988 2.44899988 10.76799965 1.000000 1.000000
2.20000005 2.30800009 10.76000023 1.000000 1.000000
2.18799996 3.27300000 8.00399971 1.000000 1.000000
2.19300008 2.84599996 8.69299984 1.000000 1.000000
2.19400001 2.69700003 8.67599964 1.000000 1.000000
2.19300008 2.85200000 7.89300013 1.000000 1.000000
2.19799995 2.38199997 8.68900013 1.000000 1.000000
2.19899988 2.20799994 8.75100040 1.000000 1.000000
2.19899988 2.29500008 8.14999962 1.000000 1.000000
2.20000005 2.15700006 8.10299969 1.000000 1.000000
2.38000011 4.67100000 15.51599979 1.000000 1.000000
2.38400006 4.20300007 15.58300018 1.000000 1.000000
2.38400006 4.39499998 10.99400043 1.000000 1.000000
2.39800000 3.05599999 13.68500042 1.000000 1.000000
2.40100002 2.80500007 13.60000038 1.000000 1.000000
2.41000009 1.92799997 14.97099972 1.000000 1.000000
2.39499998 3.38199997 11.59500027 1.000000 1.000000
2.40100002 2.80900002 12.59300041 1.000000 1.000000
2.39899993 2.99399996 11.45600033 1.000000 1.000000
2.40400004 2.62500000 10.92300034 1.000000 1.000000
1.89800000 3.07599998 14.14400005 1.000000 1.000000
1.89499998 3.06699991 13.18099976 1.000000 1.000000
1.88699996 3.42600012 12.01500034 1.000000 1.000000
1.89800000 2.84299994 13.02999973 1.000000 1.000000
1.89800000 2.64499998 12.48299980 1.000000 1.000000
1.88999999 2.95300007 11.40200043 1.000000 1.000000
1.91400003 1.51800001 13.78199959 1.000000 1.000000
1.89499998 2.50099993 11.07299995 1.000000 1.000000
1.89600003 2.39199996 10.97000027 1.000000 1.000000
1.91999996 1.04799998 13.90200043 1.000000 1.000000
1.87399995 3.46199989 7.60500002 1.000000 1.000000
1.88800001 2.47300005 8.90699959 1.000000 1.000000
1.88800001 2.45099998 8.59399986 1.000000 1.000000
1.88900006 2.31699991 8.16199970 1.000000 1.000000
1.89100003 2.12500000 8.25599957 1.000000 1.000000
1.89300001 1.94700003 8.31599998 1.000000 1.000000
1.89999998 1.37000000 8.65100002 1.000000 1.000000
1.90100002 1.23800004 8.59300041 1.000000 1.000000
1.90699995 0.72899997 8.74899960 1.000000 1.000000
2.18000007 4.41200018 15.84500027 1.000000 1.000000
2.18099999 4.30200005 15.77999973 1.000000 1.000000
2.18899989 3.47099996 15.11800003 1.000000 1.000000
2.19199991 3.33100009 15.10999966 1.000000 1.000000
1.63699996 3.47499990 12.17700005 1.000000 1.000000
1.64900005 2.84699988 13.28699970 1.000000 1.000000
1.64600003 2.76999998 12.45499992 1.000000 1.000000
1.64199996 2.88400006 11.83899975 1.000000 1.000000
1.64699996 2.42799997 11.88500023 1.000000 1.000000
1.66999996 1.32900000 14.17199993 1.000000 1.000000
1.64400005 2.43899989 11.15400028 1.000000 1.000000
1.64400005 2.34200001 11.02499962 1.000000 1.000000
1.61699998 3.50200009 7.81699991 1.000000 1.000000
1.62800002 2.82800007 8.72299957 1.000000 1.000000
1.62399995 2.93300009 8.09200001 1.000000 1.000000
1.63000000 2.32500005 8.06700039 1.000000 1.000000
1.64199996 1.51800001 8.58500004 1.000000 1.000000
1.64300001 1.36199999 8.60599995 1.000000 1.000000
1.64600003 1.18299997 8.67899990 1.000000 1.000000
1.16199994 3.75099993 13.04899979 1.000000 1.000000
1.15999997 3.71700001 12.79300022 1.000000 1.000000
1.16100001 3.59999990 12.72099972 1.000000 1.000000
1.16100001 3.54800010 12.51399994 1.000000 1.000000
1.17200005 2.79200006 12.90999985 1.000000 1.000000
1.15999997 3.01500010 11.69999981 1.000000 1.000000
1.16199994 2.88499999 11.66499996 1.000000 1.000000
1.16700006 2.31500006 11.62600040 1.000000 1.000000
1.16600001 2.18000007 11.22999954 1.000000 1.000000
1.14999998 1.88300002 8.63300037 1.000000 1.000000
1.15400004 1.64900005 8.84300041 1.000000 1.000000
1.15799999 1.45099998 8.97500038 1.000000 1.000000
1.16100001 1.24300003 9.11999989 1.000000 1.000000
1.37600005 3.62500000 12.46899986 1.000000 1.000000
1.38800001 3.09400010 13.35099983 1.000000 1.000000
1.38000000 3.19600010 12.45199966 1.000000 1.000000
1.38499999 2.92300010 12.75100040 1.000000 1.000000
1.38900006 2.70799994 12.90600014 1.000000 1.000000
1.38300002 2.29900002 11.44699955 1.000000 1.000000
1.38300002 2.24600005 11.21399975 1.000000 1.000000
1.34700000 3.44799995 7.90299988 1.000000 1.000000
1.36199999 2.74699998 8.88500023 1.000000 1.000000
1.36199999 2.56599998 8.57800007 1.000000 1.000000
1.36199999 2.38299990 8.25800037 1.000000 1.000000
1.37100005 1.79799998 8.60099983 1.000000 1.000000
1.37399995 1.59000003 8.73900032 1.000000 1.000000
1.37699997 1.39199996 8.86999989 1.000000 1.000000
1.37899995 1.19500005 8.98600006 1.000000 1.000000
1.38100004 1.04400003 8.97999954 1.000000 1.000000
1.38300002 0.91100001 8.93000031 1.000000 1.000000
1.38499999 0.72600001 9.03600025 1.000000 1.000000
0.96600002 2.82599998 13.02700043 1.000000 1.000000
0.95800000 2.79399991 11.74300003 1.000000 1.000000
0.96499997 2.14199996 11.53499985 1.000000 1.000000
1.01999998 3.80999994 12.75000000 1.000000 1.000000
1.02300000 3.44799995 12.57400036 1.000000 1.000000
1.03299999 2.83999991 12.95499992 1.000000 1.000000
1.02499998 2.84899998 11.91199970 1.000000 1.000000
1.03299999 2.14100003 11.85099983 1.000000 1.000000
1.02999997 2.16899991 11.42099953 1.000000 1.000000
1.01100004 2.07599998 8.69200039 1.000000 1.000000
1.01199996 1.93400002 8.67599964 1.000000 1.000000
1.01999998 1.50300002 9.01299953 1.000000 1.000000
1.02400005 1.27400005 9.21399975 1.000000 1.000000
1.02600002 1.11399996 9.23499966 1.000000 1.000000
1.02900004 0.94800001 9.27299976 1.000000 1.000000
0.89300001 3.71499991 12.90499973 1.000000 1.000000
0.90499997 2.83999991 12.90499973 1.000000 1.000000
0.90600002 2.22700000 11.59200001 1.000000 1.000000
0.90700001 2.11999989 11.50500011 1.000000 1.000000
0.89800000 1.94200003 8.60200024 1.000000 1.000000
0.90200001 1.66999996 8.90699959 1.000000 1.000000
0.90600002 1.44000006 9.12500000 1.000000 1.000000
0.90899998 1.25600004 9.21899986 1.000000 1.000000
0.91299999 1.02100003 9.43900013 1.000000 1.000000
0.91500002 0.87599999 9.43999958 1.000000 1.000000
0.95800000 1.52199996 9.03199959 1.000000 1.000000
0.96100003 1.31099999 9.17899990 1.000000 1.000000
0.96499997 1.09599996 9.34500027 1.000000 1.000000
0.89300001 3.80299997 13.04199982 1.000000 1.000000
0.95599997 3.74799991 13.24699974 1.000000 1.000000
0.95400000 3.77300000 12.86200047 1.000000 1.000000
0.91600001 3.84999990 12.98099995 1.000000 1.000000
0.91700000 3.73200011 12.92300034 1.000000 1.000000
0.92799997 2.84299994 12.93599987 1.000000 1.000000
0.93000001 2.75900006 11.79399967 1.000000 1.000000
0.93900001 2.13700008 11.52499962 1.000000 1.000000
0.94800001 1.68099999 8.96399975 1.000000 1.000000
0.94999999 1.48800004 9.06599998 1.000000 1.000000
0.95200002 1.27699995 9.21899986 1.000000 1.000000
0.95499998 1.08099997 9.35099983 1.000000 1.000000
0.95700002 0.94900000 9.31799984 1.000000 1.000000
0.87599999 3.80200005 12.94200039 1.000000 1.000000
0.88099998 3.34999990 12.64400005 1.000000 1.000000
0.88800001 2.86599994 13.08300018 1.000000 1.000000
0.89399999 2.15599990 11.66199970 1.000000 1.000000
0.89399999 2.11100006 11.41100025 1.000000 1.000000
0.89099997 1.97599995 8.79800034 1.000000 1.000000
0.89600003 1.59200001 9.01299953 1.000000 1.000000
0.89899999 1.37600005 9.19099998 1.000000 1.000000
0.90200001 1.16999996 9.33399963 1.000000 1.000000
0.90499997 0.94900000 9.52000046 1.000000 1.000000
0.90799999 0.75700003 9.62899971 1.000000 1.000000
0.99800003 3.68899989 12.81900024 1.000000 1.000000
1.00800002 2.71199989 13.05099964 1.000000 1.000000
1.01699996 2.83200002 11.75199986 1.000000 1.000000
1.02499998 2.33599997 11.53400040 1.000000 1.000000
1.02699995 2.15599990 11.60799980 1.000000 1.000000
1.02999997 2.18400002 11.17800045 1.000000 1.000000
1.04999995 1.98000002 8.73499966 1.000000 1.000000
1.05299997 1.85800004 8.67000008 1.000000 1.000000
0.99000001 3.77300000 12.80500031 1.000000 1.000000
0.99500000 3.41499996 12.60200024 1.000000 1.000000
1.00199997 2.80299997 13.00300026 1.000000 1.000000
1.00600004 2.85500002 11.86900043 1.000000 1.000000
1.01499999 2.09400010 11.95199966 1.000000 1.000000
1.01600003 2.14100003 11.48200035 1.000000 1.000000
1.03100002 2.08400011 8.67599964 1.000000 1.000000
1.03299999 1.96700001 8.58300018 1.000000 1.000000
1.03600001 1.47399998 9.09399986 1.000000 1.000000
1.03799999 1.28799999 9.18200016 1.000000 1.000000
1.03999996 1.15799999 9.13599968 1.000000 1.000000
1.04200006 0.94499999 9.29699993 1.000000 1.000000
1.10300004 3.72900009 12.93599987 1.000000 1.000000
1.10699999 3.68700004 12.69799995 1.000000 1.000000
1.11099994 3.43499994 12.59099960 1.000000 1.000000
1.11600006 2.72199988 12.90499973 1.000000 1.000000
1.13000000 2.93400002 11.73200035 1.000000 1.000000
1.13300002 2.84699988 11.57900047 1.000000 1.000000
1.13999999 2.23699999 11.64700031 1.000000 1.000000
1.18799996 1.81299996 8.64500046 1.000000 1.000000
1.18799996 1.60500002 8.79800034 1.000000 1.000000
1.18799996 1.37199998 9.00599957 1.000000 1.000000
1.18900001 1.21599996 9.03199959 1.000000 1.000000
1.03100002 3.67400002 12.79199982 1.000000 1.000000
1.05100000 2.98399997 11.69600010 1.000000 1.000000
1.05299997 2.84100008 11.68799973 1.000000 1.000000
1.06099999 2.27999997 11.61600018 1.000000 1.000000
1.06299996 2.15199995 11.56700039 1.000000 1.000000
1.06599998 2.12599993 11.28600025 1.000000 1.000000
1.09500003 1.97700000 8.71399975 1.000000 1.000000
1.09700000 1.85800004 8.62399960 1.000000 1.000000
1.09700000 1.61500001 8.86800003 1.000000 1.000000
1.09800005 1.38900006 9.05900002 1.000000 1.000000
1.09899998 1.18099999 9.20199966 1.000000 1.000000
1.10300004 0.92299998 9.10599995 1.000000 1.000000
1.05400002 1.60800004 8.91600037 1.000000 1.000000
1.05499995 1.39199996 9.09799957 1.000000 1.000000
1.05599999 1.19700003 9.20899963 1.000000 1.000000
1.05900002 1.02300000 9.26299953 1.000000 1.000000
1.29499996 2.36999989 8.33800030 1.000000 1.000000
1.29600000 1.80700004 8.61900043 1.000000 1.000000
1.29700005 1.62699997 8.69999981 1.000000 1.000000
1.29600000 1.41499996 8.85299969 1.000000 1.000000
1.29600000 1.21599996 8.97399998 1.000000 1.000000
1.29799998 1.06500006 8.96899986 1.000000 1.000000
1.30100000 0.94499999 8.90400028 1.000000 1.000000
1.18900001 3.48799992 13.41100025 1.000000 1.000000
1.19900000 3.64800000 12.72900009 1.000000 1.000000
1.20799994 2.68600011 12.92399979 1.000000 1.000000
1.22500002 2.85400009 11.86699963 1.000000 1.000000
1.23500001 2.36299992 11.64700031 1.000000 1.000000
1.23899996 2.31999993 11.39500046 1.000000 1.000000
1.28900003 2.63800001 8.44200039 1.000000 1.000000
1.26400006 3.61700010 12.81599998 1.000000 1.000000
1.26999998 3.54699993 12.64400005 1.000000 1.000000
1.25300002 2.77999997 13.71199989 1.000000 1.000000
1.27900004 3.00000000 12.55399990 1.000000 1.000000
1.27300000 2.68499994 12.94999981 1.000000 1.000000
1.38000000 4.16900015 7.75600004 1.000000 1.000000
1.38100004 3.77300000 7.95499992 1.000000 1.000000
1.26600003 3.63800001 12.76200008 1.000000 1.000000
1.26999998 3.55299997 12.63000011 1.000000 1.000000
1.27600002 3.53900003 12.32600021 1.000000 1.000000
1.27499998 2.90799999 12.75100040 1.000000 1.000000
1.27400005 2.68199992 12.94400024 1.000000 1.000000
1.30700004 2.39899993 11.55300045 1.000000 1.000000
1.31299996 2.37100005 11.27799988 1.000000 1.000000
1.31500006 2.23600006 11.24199963 1.000000 1.000000
1.37199998 3.45000005 7.96700001 1.000000 1.000000
1.35899997 2.72000003 8.98200035 1.000000 1.000000
1.36899996 2.58899999 8.55700016 1.000000 1.000000
1.37699997 2.37599993 8.33100033 1.000000 1.000000
1.37899995 1.62100005 8.69299984 1.000000 1.000000
1.37800002 1.41799998 8.83699989 1.000000 1.000000
1.37800002 1.24300003 8.91199970 1.000000 1.000000
1.37800002 1.05599999 9.00199986 1.000000 1.000000
1.38000000 0.89999998 9.02900028 1.000000 1.000000
1.26400006 2.37700009 11.53699970 1.000000 1.000000
1.27600002 2.42100000 11.07800007 1.000000 1.000000
1.27400005 2.20600009 11.24800014 1.000000 1.000000
1.22599995 3.68499994 13.14400005 1.000000 1.000000
1.23899996 3.58100009 12.72900009 1.000000 1.000000
1.24100006 3.44799995 12.70400047 1.000000 1.000000
1.27600002 3.07100010 11.54300022 1.000000 1.000000
1.27199996 2.79399991 11.85200024 1.000000 1.000000
1.28799999 2.38499999 11.42099953 1.000000 1.000000
1.29400003 2.31200004 11.23799992 1.000000 1.000000
1.29600000 2.19099998 11.18200016 1.000000 1.000000
1.37199998 2.33599997 8.25699997 1.000000 1.000000
1.37100005 1.75899994 8.57400036 1.000000 1.000000
1.36899996 1.52900004 8.77000046 1.000000 1.000000
1.37100005 1.37300003 8.77600002 1.000000 1.000000
1.36800003 1.15600002 8.94400024 1.000000 1.000000
1.38399994 3.44000006 8.00100040 1.000000 1.000000
1.36899996 2.73799992 8.96199989 1.000000 1.000000
1.37800002 2.53900003 8.70600033 1.000000 1.000000
1.38699996 2.34599996 8.42800045 1.000000 1.000000
1.38999999 1.64999998 8.66399956 1.000000 1.000000
1.38900006 1.44500005 8.79800034 1.000000 1.000000
1.38900006 1.26800001 8.87600040 1.000000 1.000000
1.38999999 1.10500002 8.90600014 1.000000 1.000000
1.39300001 0.76700002 8.99199963 1.000000 1.000000
1.26999998 2.79900002 13.67800045 1.000000 1.000000
1.29799998 2.90499997 12.78699970 1.000000 1.000000
1.29600000 2.68099999 12.96100044 1.000000 1.000000
1.34099996 2.89299989 11.47200012 1.000000 1.000000
1.36099994 2.29299998 11.13099957 1.000000 1.000000
1.45200002 3.52200007 7.83799982 1.000000 1.000000
1.43400002 2.89000010 8.61900043 1.000000 1.000000
1.43400002 2.51999998 8.78100014 1.000000 1.000000
1.45599997 2.47600007 8.12300014 1.000000 1.000000
1.45299995 1.69000006 8.59000015 1.000000 1.000000
1.44900000 1.46200001 8.78199959 1.000000 1.000000
1.45099998 1.31400001 8.76799965 1.000000 1.000000
1.45700002 1.03600001 8.71500015 1.000000 1.000000
1.45500004 0.66600001 8.90400028 1.000000 1.000000
1.35500002 3.46700001 7.85500002 1.000000 1.000000
1.33500004 2.73200011 8.87800026 1.000000 1.000000
1.34500003 2.54900002 8.59500027 1.000000 1.000000
1.35599995 2.34800005 8.34399986 1.000000 1.000000
1.35399997 1.75300002 8.67399979 1.000000 1.000000
1.35599995 1.60300004 8.68299961 1.000000 1.000000
1.35200000 1.36300004 8.92000008 1.000000 1.000000
1.35599995 1.23300004 8.86299992 1.000000 1.000000
1.35699999 1.08399999 8.86999989 1.000000 1.000000
1.35500002 0.86500001 9.04899979 1.000000 1.000000
1.19299996 3.38700008 13.56099987 1.000000 1.000000
1.21000004 3.56900001 12.84300041 1.000000 1.000000
1.21500003 3.45400000 12.76799965 1.000000 1.000000
1.22000003 2.65899992 12.91499996 1.000000 1.000000
1.24899995 2.82900000 11.85599995 1.000000 1.000000
1.41400003 2.89899993 11.52400017 1.000000 1.000000
1.43400002 2.30200005 11.19600010 1.000000 1.000000
1.52699995 2.67199993 8.48600006 1.000000 1.000000
1.54400003 2.34599996 8.16899967 1.000000 1.000000
1.53999996 1.74899995 8.50800037 1.000000 1.000000
