4.47900009 0.41700000 18.47699928 1.000000 1.000000
4.59899998 0.43399999 18.40200043 1.000000 1.000000
5.11700010 1.30499995 2.82100010 1.000000 1.000000
5.19399977 1.35699999 1.95400000 1.000000 1.000000
5.17899990 1.37300003 1.60000002 1.000000 1.000000
4.52199984 0.45100001 18.53300095 1.000000 1.000000
4.61899996 0.46700001 18.43600082 1.000000 1.000000
4.74100018 1.17200005 6.52500010 1.000000 1.000000
4.46600008 0.55800003 18.39699936 1.000000 1.000000
4.74200010 0.58200002 18.52700043 1.000000 1.000000
3.09699988 0.54299998 17.29199982 1.000000 1.000000
4.36399984 0.61400002 18.70199966 1.000000 1.000000
4.28000021 0.62000000 18.37000084 1.000000 1.000000
4.72700024 0.66299999 18.50099945 1.000000 1.000000
4.91900015 0.68300003 18.53000069 1.000000 1.000000
5.05600023 0.69999999 18.47999954 1.000000 1.000000
4.17700005 0.98500001 10.48099995 1.000000 1.000000
4.22100019 1.01300001 9.98299980 1.000000 1.000000
4.23600006 1.02600002 9.72299957 1.000000 1.000000
4.43800020 1.10000002 8.63199997 1.000000 1.000000
4.53700018 1.14499998 7.91499996 1.000000 1.000000
4.56699991 1.17400002 7.37699986 1.000000 1.000000
4.67899990 1.20500004 6.96600008 1.000000 1.000000
4.68599987 1.22000003 6.67299986 1.000000 1.000000
4.01800013 0.95099998 11.09799957 1.000000 1.000000
4.16599989 1.00600004 10.23299980 1.000000 1.000000
4.32000017 1.04900002 9.63399982 1.000000 1.000000
4.46400023 1.11899996 8.43799973 1.000000 1.000000
4.64900017 1.17900002 7.56099987 1.000000 1.000000
3.15000010 0.57300001 17.38299942 1.000000 1.000000
4.32200003 0.64099997 18.67799950 1.000000 1.000000
4.26000023 0.64899999 18.36700058 1.000000 1.000000
4.78200006 0.69599998 18.58799934 1.000000 1.000000
4.82900000 0.70800000 18.42600060 1.000000 1.000000
4.32900000 1.15400004 9.67800045 1.000000 1.000000
4.30200005 1.16499996 9.35200024 1.000000 1.000000
4.31500006 1.17799997 9.09700012 1.000000 1.000000
4.54199982 1.23699999 8.29800034 1.000000 1.000000
4.11800003 0.73400003 18.67900085 1.000000 1.000000
3.97099996 0.73699999 18.26300049 1.000000 1.000000
4.14699984 0.75500000 18.26899910 1.000000 1.000000
4.82499981 0.81000000 18.70199966 1.000000 1.000000
4.78999996 0.81900001 18.42200089 1.000000 1.000000
4.05200005 1.05700004 11.18500042 1.000000 1.000000
4.15700006 1.11099994 10.23999977 1.000000 1.000000
4.31300020 1.12899995 10.19900036 1.000000 1.000000
4.31699991 1.14100003 9.93400002 1.000000 1.000000
3.79299998 1.09500003 12.06999969 1.000000 1.000000
3.84899998 1.10899997 11.89299965 1.000000 1.000000
5.31699991 1.18599999 13.76099968 1.000000 1.000000
5.41800022 1.20200002 13.65799999 1.000000 1.000000
5.30100012 1.23099995 12.69400024 1.000000 1.000000
4.31699991 1.21099997 10.70499992 1.000000 1.000000
4.28100014 1.22099996 10.37399960 1.000000 1.000000
4.29500008 1.23399997 10.12300014 1.000000 1.000000
4.22300005 1.24199998 9.73099995 1.000000 1.000000
4.19999981 1.25399995 9.41199970 1.000000 1.000000
4.26100016 1.26900005 9.21899986 1.000000 1.000000
4.01200008 0.84299999 18.48699951 1.000000 1.000000
3.88700008 0.84600002 18.09499931 1.000000 1.000000
4.25799990 0.87500000 18.34499931 1.000000 1.000000
4.55700016 0.89999998 18.50499916 1.000000 1.000000
4.79400015 0.92199999 18.59499931 1.000000 1.000000
5.04199982 0.94400001 18.70000076 1.000000 1.000000
2.83599997 0.79900002 17.42499924 1.000000 1.000000
3.00399995 0.81800002 17.40399933 1.000000 1.000000
3.84400010 0.87300003 18.26799965 1.000000 1.000000
3.56999993 0.87699997 17.45000076 1.000000 1.000000
4.76999998 0.94999999 18.79700089 1.000000 1.000000
4.98099995 0.97100002 18.84300041 1.000000 1.000000
4.98999977 0.98100001 18.62500000 1.000000 1.000000
3.71399999 1.10699999 12.21800041 1.000000 1.000000
4.24399996 1.22000003 10.85099983 1.000000 1.000000
4.29899979 1.23399997 10.65600014 1.000000 1.000000
4.22800016 1.24199998 10.26900005 1.000000 1.000000
4.19999981 1.25199997 9.95699978 1.000000 1.000000
4.22200012 1.26400006 9.71899986 1.000000 1.000000
4.22200012 1.27600002 9.43400002 1.000000 1.000000
4.24399996 1.28799999 9.19299984 1.000000 1.000000
4.14400005 1.29900002 9.60000038 1.000000 1.000000
4.15299988 1.31099999 9.33100033 1.000000 1.000000
3.02999997 0.87300003 17.45299911 1.000000 1.000000
3.50600004 0.92799997 17.36499977 1.000000 1.000000
4.65600014 1.00100005 18.64699936 1.000000 1.000000
4.69099998 1.01100004 18.46999931 1.000000 1.000000
3.51600003 1.09000003 13.23200035 1.000000 1.000000
3.59200001 1.10399997 13.08800030 1.000000 1.000000
3.60599995 1.11500001 12.84599972 1.000000 1.000000
3.66000009 1.12800002 12.65900040 1.000000 1.000000
4.09600019 1.23300004 11.17000008 1.000000 1.000000
4.24700022 1.25100005 11.13000011 1.000000 1.000000
4.26200008 1.26199996 10.88599968 1.000000 1.000000
4.27600002 1.27400005 10.62899971 1.000000 1.000000
4.26100016 1.28299999 10.33899975 1.000000 1.000000
4.16900015 1.28999996 9.91899967 1.000000 1.000000
3.42199993 1.19000006 11.56700039 1.000000 1.000000
4.17899990 1.27900004 11.35099983 1.000000 1.000000
4.22100019 1.29200006 11.13799953 1.000000 1.000000
4.21000004 1.30100000 10.84399986 1.000000 1.000000
4.20200014 1.31099999 10.55200005 1.000000 1.000000
4.06099987 1.32500005 9.80000019 1.000000 1.000000
4.69500017 1.48399997 7.33799982 1.000000 1.000000
2.54299998 0.88099998 17.31399918 1.000000 1.000000
2.73200011 0.91000003 17.09700012 1.000000 1.000000
3.10100007 0.94000000 17.34700012 1.000000 1.000000
3.38299990 0.97399998 17.25099945 1.000000 1.000000
4.55200005 1.04999995 18.54400063 1.000000 1.000000
3.49000001 0.99800003 16.91099930 1.000000 1.000000
4.90500021 1.08899999 18.54599953 1.000000 1.000000
3.52999997 1.12800002 13.54300022 1.000000 1.000000
3.56100011 1.13900006 13.32699966 1.000000 1.000000
3.68700004 1.15499997 13.25500011 1.000000 1.000000
3.66100001 1.16299999 12.96899986 1.000000 1.000000
3.65599990 1.17299998 12.69600010 1.000000 1.000000
3.54099989 1.23699999 14.18700027 1.000000 1.000000
3.50699997 1.24500000 13.88199997 1.000000 1.000000
3.48799992 1.25300002 13.60999966 1.000000 1.000000
3.47600007 1.26100004 13.34500027 1.000000 1.000000
3.70499992 1.28299999 13.40699959 1.000000 1.000000
3.81699991 1.29900002 13.31499958 1.000000 1.000000
3.99499989 1.33800006 12.78100014 1.000000 1.000000
3.78399992 1.33599997 12.22299957 1.000000 1.000000
4.10200024 1.36199999 12.42599964 1.000000 1.000000
4.17799997 1.37600005 12.26599979 1.000000 1.000000
4.05499983 1.37899995 11.82699966 1.000000 1.000000
2.45099998 1.00399995 17.32299995 1.000000 1.000000
2.82699990 1.05299997 17.11199951 1.000000 1.000000
2.79999995 1.05999994 16.83799934 1.000000 1.000000
2.86500001 1.07200003 16.68300056 1.000000 1.000000
4.46000004 1.18200004 18.31200027 1.000000 1.000000
3.16400003 1.11500001 16.37400055 1.000000 1.000000
3.16400003 1.12500000 16.13100052 1.000000 1.000000
3.50000000 1.21599996 14.63799953 1.000000 1.000000
3.53900003 1.22800004 14.43799973 1.000000 1.000000
3.42300010 1.26499999 14.60000038 1.000000 1.000000
3.48000002 1.27800000 14.43599987 1.000000 1.000000
3.48300004 1.28699994 14.18599987 1.000000 1.000000
3.34800005 1.28799999 13.75300026 1.000000 1.000000
2.76200008 1.27199996 12.40900040 1.000000 1.000000
3.71600008 1.33599997 13.48999977 1.000000 1.000000
3.82200003 1.35099995 13.39000034 1.000000 1.000000
3.82999992 1.36000001 13.15100002 1.000000 1.000000
3.73000002 1.36399996 12.74499989 1.000000 1.000000
3.86999989 1.38100004 12.69299984 1.000000 1.000000
3.84899998 1.38900006 12.39900017 1.000000 1.000000
4.05399990 1.40999997 12.42800045 1.000000 1.000000
4.15299988 1.42499995 12.30500031 1.000000 1.000000
4.10099983 1.43099999 11.97099972 1.000000 1.000000
4.04400015 1.43700004 11.62800026 1.000000 1.000000
2.69300008 1.10300004 17.00000000 1.000000 1.000000
2.09200001 1.07400000 15.99100018 1.000000 1.000000
2.76699996 1.12399995 16.62700081 1.000000 1.000000
3.48900008 1.18400002 17.10499954 1.000000 1.000000
2.97799993 1.16199994 16.18899918 1.000000 1.000000
3.09999990 1.17799997 16.10600090 1.000000 1.000000
2.10500002 1.27999997 16.89500046 1.000000 1.000000
3.79600000 1.42400002 17.90500069 1.000000 1.000000
2.66499996 1.36699998 16.19400024 1.000000 1.000000
4.35599995 1.47399998 18.19000053 1.000000 1.000000
2.41300011 1.37800002 15.14299965 1.000000 1.000000
3.03900003 1.45099998 14.99899960 1.000000 1.000000
3.31900001 1.47599995 15.14000034 1.000000 1.000000
3.13299990 1.47500002 14.63500023 1.000000 1.000000
3.48499990 1.50300002 14.87500000 1.000000 1.000000
3.22199988 1.49899995 14.25800037 1.000000 1.000000
3.56800008 1.52699995 14.48099995 1.000000 1.000000
3.23000002 1.51800001 13.75699997 1.000000 1.000000
3.86500001 1.57099998 14.14700031 1.000000 1.000000
3.46600008 1.56799996 13.07699966 1.000000 1.000000
3.49200010 1.57900000 12.85200024 1.000000 1.000000
4.09299994 1.62199998 13.44299984 1.000000 1.000000
4.30200005 1.65199995 13.23099995 1.000000 1.000000
5.32800007 1.83500004 11.28999996 1.000000 1.000000
5.60599995 1.85800004 11.45199966 1.000000 1.000000
4.48299980 1.81200004 9.45800018 1.000000 1.000000
4.47499990 2.01999998 10.57400036 1.000000 1.000000
4.41099977 2.02800012 10.20899963 1.000000 1.000000
2.20199990 1.49100006 17.93600082 1.000000 1.000000
2.32800007 1.50699997 17.87000084 1.000000 1.000000
3.51799989 1.60200000 18.69099998 1.000000 1.000000
2.62599993 1.57799995 16.86000061 1.000000 1.000000
3.55500007 1.64900005 17.60499954 1.000000 1.000000
3.05800009 1.66700006 15.76099968 1.000000 1.000000
3.65400004 1.74699998 15.35200024 1.000000 1.000000
3.07500005 1.75399995 13.56200027 1.000000 1.000000
3.92899990 1.80999994 14.49499989 1.000000 1.000000
4.00899982 1.82400000 14.35200024 1.000000 1.000000
4.00799990 2.07200003 13.89200020 1.000000 1.000000
3.86400008 2.07500005 13.42899990 1.000000 1.000000
2.33400011 1.71899998 18.14999962 1.000000 1.000000
2.11299992 1.71599996 17.64599991 1.000000 1.000000
2.65599990 1.77400005 17.64800072 1.000000 1.000000
2.74600005 1.79900002 17.29599953 1.000000 1.000000
2.59299994 1.79900002 16.86000061 1.000000 1.000000
2.65400004 1.81200004 16.70999908 1.000000 1.000000
2.79099989 1.82900000 16.65800095 1.000000 1.000000
3.03600001 1.85200000 16.73800087 1.000000 1.000000
2.85899997 1.87199998 15.78299999 1.000000 1.000000
3.01799989 1.96000004 14.02499962 1.000000 1.000000
4.12900019 2.02699995 15.31400013 1.000000 1.000000
4.21899986 2.27500010 15.79800034 1.000000 1.000000
5.15000010 2.38100004 15.62600040 1.000000 1.000000
5.27500010 2.40700006 15.31200027 1.000000 1.000000
3.70099998 2.35599995 12.54300022 1.000000 1.000000
1.56400001 1.90799999 17.73299980 1.000000 1.000000
1.84599996 1.93400002 17.85199928 1.000000 1.000000
1.84200001 1.95299995 17.39200020 1.000000 1.000000
2.08299994 1.97500002 17.46400070 1.000000 1.000000
4.07100010 2.11899996 19.09399986 1.000000 1.000000
3.95600009 2.17100000 17.57999992 1.000000 1.000000
2.49399996 2.31299996 15.01299953 1.000000 1.000000
3.83800006 2.47399998 14.62300014 1.000000 1.000000
3.99300003 2.50300002 14.33100033 1.000000 1.000000
3.15100002 2.48600006 12.63599968 1.000000 1.000000
4.07399988 2.60599995 12.12300014 1.000000 1.000000
4.49100018 2.64700007 12.20699978 1.000000 1.000000
4.41599989 2.65599990 11.83500004 1.000000 1.000000
2.10999990 2.13100004 18.28000069 1.000000 1.000000
2.38899994 2.15599990 18.40800095 1.000000 1.000000
3.15700006 2.25399995 18.00900078 1.000000 1.000000
3.93799996 2.33400011 18.11700058 1.000000 1.000000
3.19499993 2.32800007 16.42099953 1.000000 1.000000
4.44600010 2.76799989 15.20699978 1.000000 1.000000
5.62400007 2.93000007 14.38700008 1.000000 1.000000
4.33099985 2.87700009 12.49899960 1.000000 1.000000
4.59000015 2.89899993 12.61100006 1.000000 1.000000
1.82200003 2.36500001 17.89900017 1.000000 1.000000
3.61599994 2.51600003 18.81200027 1.000000 1.000000
3.70900011 2.53099990 18.70199966 1.000000 1.000000
3.75999999 2.54399991 18.53800011 1.000000 1.000000
2.07800007 2.46099997 16.36199951 1.000000 1.000000
3.60299993 2.54699993 18.10099983 1.000000 1.000000
3.07200003 2.53099990 17.18400002 1.000000 1.000000
3.15599990 2.54500008 17.06599998 1.000000 1.000000
3.69300008 2.59200001 17.30699921 1.000000 1.000000
3.75099993 2.60599995 17.14599991 1.000000 1.000000
4.06699991 2.65199995 16.86000061 1.000000 1.000000
4.68499994 2.71300006 16.99399948 1.000000 1.000000
4.13999987 2.74300003 15.03100014 1.000000 1.000000
6.00000000 3.08200002 16.88800049 1.000000 1.000000
4.46199989 3.06500006 13.69400024 1.000000 1.000000
5.33400011 3.11199999 14.69999981 1.000000 1.000000
5.23899984 3.11999989 14.31499958 1.000000 1.000000
5.79300022 3.19000006 14.09599972 1.000000 1.000000
1.55700004 2.54099989 18.25499916 1.000000 1.000000
1.83500004 2.56500006 18.37800026 1.000000 1.000000
2.68499994 2.62899995 18.98699951 1.000000 1.000000
2.55399990 2.63199997 18.60300064 1.000000 1.000000
2.43899989 2.63700008 18.22800064 1.000000 1.000000
2.98399997 2.69600010 18.23200035 1.000000 1.000000
2.84100008 2.71099997 17.58799934 1.000000 1.000000
1.92600000 2.71099997 15.44299984 1.000000 1.000000
3.61999989 2.82299995 16.96999931 1.000000 1.000000
4.15899992 2.88000011 16.97599983 1.000000 1.000000
4.54500008 2.93000007 16.79299927 1.000000 1.000000
4.76599979 2.95199990 16.85199928 1.000000 1.000000
2.99900007 2.88499999 14.18900013 1.000000 1.000000
5.37300014 3.01200008 16.96899986 1.000000 1.000000
4.02199984 2.96499991 14.84200001 1.000000 1.000000
4.52500010 2.99699998 15.30200005 1.000000 1.000000
5.93599987 3.18199992 16.87100029 1.000000 1.000000
5.77699995 3.18600011 16.41099930 1.000000 1.000000
4.91699982 3.17199993 14.69600010 1.000000 1.000000
4.86499977 3.18199992 14.36499977 1.000000 1.000000
5.13600016 3.20499992 14.49899960 1.000000 1.000000
4.43100023 3.18799996 13.22000027 1.000000 1.000000
2.42899990 2.69600010 19.15500069 1.000000 1.000000
2.40599990 2.70499992 18.89999962 1.000000 1.000000
2.39000010 2.72499990 18.44099998 1.000000 1.000000
2.45900011 2.73900008 18.29700089 1.000000 1.000000
2.82900000 2.76799989 18.54199982 1.000000 1.000000
1.91100001 2.74399996 16.90900040 1.000000 1.000000
1.95200002 2.78999996 16.02099991 1.000000 1.000000
3.73099995 2.88599992 18.10899925 1.000000 1.000000
4.01599979 2.97499990 16.85600090 1.000000 1.000000
4.52899981 3.03200006 16.82699966 1.000000 1.000000
4.59299994 3.04500008 16.68199921 1.000000 1.000000
2.88100004 2.96799994 14.33899975 1.000000 1.000000
5.42399979 3.11599994 17.11899948 1.000000 1.000000
4.73600006 3.09599996 15.91699982 1.000000 1.000000
4.84999990 3.26099992 14.72799969 1.000000 1.000000
4.93400002 3.28699994 14.34799957 1.000000 1.000000
2.30800009 2.80500007 18.70400047 1.000000 1.000000
2.33500004 2.81699991 18.50900078 1.000000 1.000000
2.79299998 2.86100006 18.63599968 1.000000 1.000000
1.89699996 2.85599995 16.57299995 1.000000 1.000000
1.90699995 2.86899996 16.34399986 1.000000 1.000000
3.73699999 2.98099995 18.25000000 1.000000 1.000000
3.41400003 3.01799989 16.65600014 1.000000 1.000000
4.06400013 3.07100010 17.05299950 1.000000 1.000000
4.25699997 3.11100006 16.61000061 1.000000 1.000000
4.45599985 3.13199997 16.63699913 1.000000 1.000000
2.82800007 3.05599999 14.41499996 1.000000 1.000000
5.16200018 3.18700004 17.11899948 1.000000 1.000000
5.53399992 3.21399999 17.39900017 1.000000 1.000000
3.87899995 3.15000010 14.86800003 1.000000 1.000000
4.63000011 3.20600009 15.42099953 1.000000 1.000000
4.40000010 3.20700002 14.84500027 1.000000 1.000000
5.92500019 3.28600001 16.74699974 1.000000 1.000000
2.38000011 2.75000000 19.03100014 1.000000 1.000000
2.61199999 2.77200007 19.10199928 1.000000 1.000000
2.46000004 2.79299998 18.23399925 1.000000 1.000000
2.72199988 2.81699991 18.33499908 1.000000 1.000000
2.01900005 2.82699990 16.27799988 1.000000 1.000000
2.20799994 2.84699988 16.28199959 1.000000 1.000000
1.66600001 2.82800007 15.33199978 1.000000 1.000000
3.64400005 2.97300005 16.99099922 1.000000 1.000000
3.96799994 3.00999999 16.95299911 1.000000 1.000000
4.34899998 3.06999993 16.51700020 1.000000 1.000000
2.92000008 3.00699997 14.31299973 1.000000 1.000000
3.27200007 3.05599999 14.04899979 1.000000 1.000000
4.86299992 3.15700006 15.77000046 1.000000 1.000000
5.98299980 3.23300004 16.86199951 1.000000 1.000000
4.88500023 3.21099997 14.56099987 1.000000 1.000000
5.04600000 3.22900009 14.53600025 1.000000 1.000000
4.98799992 3.23699999 14.20499992 1.000000 1.000000
4.14400005 3.20600009 12.73099995 1.000000 1.000000
2.24699998 2.69099998 18.85499954 1.000000 1.000000
2.50699997 2.71600008 18.95100021 1.000000 1.000000
2.46700001 2.74099994 18.22100067 1.000000 1.000000
2.85800004 2.77200007 18.49399948 1.000000 1.000000
1.76199996 2.72399998 16.63599968 1.000000 1.000000
2.07100010 2.77099991 16.31100082 1.000000 1.000000
2.17000008 2.78600001 16.20700073 1.000000 1.000000
1.63499999 2.76300001 15.27200031 1.000000 1.000000
3.29200006 2.86999989 17.20400047 1.000000 1.000000
3.67400002 2.91899991 17.00300026 1.000000 1.000000
4.37599993 3.01500010 16.52700043 1.000000 1.000000
2.94400001 2.94400001 14.31700039 1.000000 1.000000
5.27299976 3.09400010 17.04100037 1.000000 1.000000
6.02600002 3.18099999 16.89399910 1.000000 1.000000
4.80700016 3.14299989 14.42500019 1.000000 1.000000
5.06699991 3.16799998 14.54199982 1.000000 1.000000
5.18599987 3.18300009 14.46599960 1.000000 1.000000
4.23999977 3.14299989 12.83199978 1.000000 1.000000
1.76699996 2.52200007 18.64299965 1.000000 1.000000
2.15199995 2.56299996 18.68000031 1.000000 1.000000
2.29699993 2.57999992 18.63299942 1.000000 1.000000
2.37199998 2.59299994 18.50499916 1.000000 1.000000
2.19000006 2.58899999 18.04599953 1.000000 1.000000
2.91199994 2.65199995 18.49699974 1.000000 1.000000
3.30299997 2.70900011 18.09700012 1.000000 1.000000
2.27099991 2.66499996 16.03800011 1.000000 1.000000
4.50099993 2.89000010 16.63299942 1.000000 1.000000
4.90700006 2.92400002 16.95599937 1.000000 1.000000
3.06500006 2.81500006 14.17000008 1.000000 1.000000
4.41699982 2.92600012 15.30000019 1.000000 1.000000
4.52600002 2.94099998 15.21100044 1.000000 1.000000
5.98799992 3.04800010 16.78599930 1.000000 1.000000
4.59999990 2.99699998 13.79800034 1.000000 1.000000
5.34100008 3.04999995 14.62300014 1.000000 1.000000
5.24200010 3.05299997 14.22000027 1.000000 1.000000
4.72900009 3.02999997 13.21899986 1.000000 1.000000
4.46299982 2.67199993 16.80299950 1.000000 1.000000
4.64300013 2.69099998 16.80699921 1.000000 1.000000
4.16699982 2.69099998 14.92899990 1.000000 1.000000
2.89899993 2.61400008 12.64000034 1.000000 1.000000
5.10200024 2.77800012 15.50100040 1.000000 1.000000
4.92199993 2.79900002 13.98999977 1.000000 1.000000
3.98699999 2.74200010 12.36900043 1.000000 1.000000
5.78800011 2.88299990 14.48099995 1.000000 1.000000
4.34399986 2.78200006 12.35700035 1.000000 1.000000
1.56700003 2.31900001 17.92200089 1.000000 1.000000
1.66100001 2.33299994 17.80800056 1.000000 1.000000
1.88100004 2.35599995 17.85199928 1.000000 1.000000
3.55200005 2.51399994 18.84499931 1.000000 1.000000
3.62800002 2.52600002 18.71100044 1.000000 1.000000
3.49799991 2.52200007 18.31200027 1.000000 1.000000
3.88400006 2.55699992 18.57999992 1.000000 1.000000
2.09599996 2.42400002 16.25399971 1.000000 1.000000
2.87700009 2.48799992 17.04299927 1.000000 1.000000
2.36599994 2.47799993 15.41899967 1.000000 1.000000
4.16699982 2.67499995 12.57800007 1.000000 1.000000
3.21499991 2.63499999 9.80799961 1.000000 1.000000
1.94799995 2.30599999 17.68199921 1.000000 1.000000
3.54200006 2.45600009 18.79400063 1.000000 1.000000
3.63299990 2.46900010 18.68899918 1.000000 1.000000
3.51600003 2.46499991 18.30699921 1.000000 1.000000
3.91100001 2.50200009 18.59499931 1.000000 1.000000
2.03999996 2.35299993 16.15900040 1.000000 1.000000
3.17400002 2.46099997 16.92099953 1.000000 1.000000
3.40499997 2.48399997 16.99699974 1.000000 1.000000
2.34400010 2.40599990 15.35299969 1.000000 1.000000
4.29899979 2.59500003 16.52700043 1.000000 1.000000
4.47900009 2.62599993 16.05900002 1.000000 1.000000
3.53699994 2.56500006 14.24699974 1.000000 1.000000
5.42899990 2.71700001 16.64299965 1.000000 1.000000
2.81100011 2.52699995 12.46500015 1.000000 1.000000
5.40500021 2.74499989 15.38700008 1.000000 1.000000
3.67799997 2.34100008 17.48900032 1.000000 1.000000
3.12700009 2.29800010 16.52899933 1.000000 1.000000
3.21199989 2.30900002 16.39900017 1.000000 1.000000
3.47199988 2.38499999 13.79599953 1.000000 1.000000
3.96600008 2.43199992 14.24600029 1.000000 1.000000
5.71500015 2.58500004 16.46899986 1.000000 1.000000
3.86500001 2.45600009 12.29100037 1.000000 1.000000
3.88800001 2.48200011 10.98799992 1.000000 1.000000
2.60700011 2.19700003 18.86100006 1.000000 1.000000
3.03900003 2.25999999 18.05200005 1.000000 1.000000
2.52699995 2.22399998 16.91200066 1.000000 1.000000
2.76699996 2.24900007 16.98600006 1.000000 1.000000
2.81699991 2.26200008 16.58900070 1.000000 1.000000
3.58699989 2.36100006 13.89299965 1.000000 1.000000
2.56699991 2.17300010 18.77700043 1.000000 1.000000
2.74799991 2.22099996 16.93199921 1.000000 1.000000
2.61800003 2.21600008 16.27899933 1.000000 1.000000
3.24900007 2.27699995 16.86899948 1.000000 1.000000
3.14700007 2.27200007 16.50200081 1.000000 1.000000
3.23699999 2.28399992 16.38699913 1.000000 1.000000
3.99300003 2.42499995 11.01900005 1.000000 1.000000
2.64000010 2.17799997 18.80200005 1.000000 1.000000
2.79800010 2.21900010 16.92799950 1.000000 1.000000
3.99099994 2.33500004 18.25600052 1.000000 1.000000
2.75300002 2.22099996 16.39699936 1.000000 1.000000
3.12800002 2.25900006 16.66200066 1.000000 1.000000
3.23499990 2.27600002 16.32699966 1.000000 1.000000
2.56299996 2.21799994 14.93000031 1.000000 1.000000
3.46700001 2.33299994 13.68099976 1.000000 1.000000
2.61400008 2.21099997 18.89399910 1.000000 1.000000
1.78400004 2.13100004 17.62500000 1.000000 1.000000
2.76099992 2.23900008 17.71199989 1.000000 1.000000
2.53299999 2.22199988 16.94899940 1.000000 1.000000
3.26099992 2.29600000 17.66900063 1.000000 1.000000
3.13700008 2.29299998 16.55699921 1.000000 1.000000
3.20000005 2.30200005 16.39800072 1.000000 1.000000
3.98900008 2.41300011 14.28100014 1.000000 1.000000
3.91000009 2.42199993 12.62600040 1.000000 1.000000
4.51000023 2.49900007 11.64200020 1.000000 1.000000
3.48399997 2.46900010 18.28499985 1.000000 1.000000
3.91799998 2.51300001 18.61800003 1.000000 1.000000
4.04699993 2.52800012 18.55400085 1.000000 1.000000
3.12299991 2.44199991 16.88199997 1.000000 1.000000
4.26499987 2.57500005 16.51099968 1.000000 1.000000
5.50299978 2.71300006 16.54000092 1.000000 1.000000
5.14599991 2.68600011 15.29599953 1.000000 1.000000
5.39900017 2.71399999 15.40699959 1.000000 1.000000
1.93599999 2.29900002 17.90900040 1.000000 1.000000
1.93599999 2.30100012 17.67399979 1.000000 1.000000
3.54900002 2.46900010 18.82299995 1.000000 1.000000
3.48799992 2.46600008 18.52199936 1.000000 1.000000
4.18300009 2.65400004 14.93999958 1.000000 1.000000
5.27699995 2.77099991 15.49600029 1.000000 1.000000
5.35599995 2.78099990 15.36400032 1.000000 1.000000
5.78499985 2.83699989 14.46700001 1.000000 1.000000
1.74199998 2.35100007 17.92499924 1.000000 1.000000
1.90400004 2.36999989 17.90500069 1.000000 1.000000
1.94599998 2.37700009 17.72200012 1.000000 1.000000
2.72300005 2.45700002 18.48399925 1.000000 1.000000
3.51399994 2.54200006 18.80400085 1.000000 1.000000
3.44300008 2.53900003 18.26600075 1.000000 1.000000
3.77399993 2.57500005 18.46400070 1.000000 1.000000
3.04399991 2.50600004 17.04000092 1.000000 1.000000
2.37599993 2.44600010 15.43000031 1.000000 1.000000
4.20599985 2.63800001 16.93000031 1.000000 1.000000
4.53200006 2.67600012 16.65600014 1.000000 1.000000
5.37799978 2.76699996 17.11400032 1.000000 1.000000
2.44199991 2.62400007 19.07200050 1.000000 1.000000
2.30699992 2.61700010 18.44199944 1.000000 1.000000
2.50000000 2.64100003 18.23200035 1.000000 1.000000
3.00799990 2.69300008 18.65699959 1.000000 1.000000
2.74399996 2.67000008 18.08799934 1.000000 1.000000
3.35599995 2.73799992 18.18499947 1.000000 1.000000
2.31399989 2.64400005 16.12400055 1.000000 1.000000
2.15000010 2.63000011 15.66199970 1.000000 1.000000
3.73000002 2.79299998 17.04700089 1.000000 1.000000
4.29799986 2.86199999 16.63599968 1.000000 1.000000
4.50400019 2.88400006 16.67399979 1.000000 1.000000
4.12300014 2.86199999 14.91800022 1.000000 1.000000
5.20400000 2.97199988 15.95100021 1.000000 1.000000
4.71299982 2.93899989 13.99100018 1.000000 1.000000
5.38999987 3.00900006 14.46899986 1.000000 1.000000
5.36700010 3.00999999 14.17399979 1.000000 1.000000
5.82200003 3.06299996 14.08300018 1.000000 1.000000
3.59899998 3.01500010 17.25000000 1.000000 1.000000
4.65700006 3.13899994 17.01600075 1.000000 1.000000
2.92100000 2.97700000 14.37899971 1.000000 1.000000
5.12799978 3.19300008 16.93300056 1.000000 1.000000
4.67600012 3.15400004 16.06699944 1.000000 1.000000
2.26600003 2.92400002 12.70100021 1.000000 1.000000
5.80299997 3.27300000 16.68000031 1.000000 1.000000
4.98000002 3.20499992 14.75500011 1.000000 1.000000
4.98999977 3.20900011 14.52099991 1.000000 1.000000
4.61000013 3.18000007 13.45600033 1.000000 1.000000
1.63699996 2.77500010 18.65200043 1.000000 1.000000
2.02399993 2.81500006 18.91200066 1.000000 1.000000
2.12500000 2.82800007 18.80699921 1.000000 1.000000
2.47099996 2.87100005 18.55900002 1.000000 1.000000
2.98799992 2.93000007 18.54199982 1.000000 1.000000
1.62399995 2.80100012 16.55599976 1.000000 1.000000
2.00300002 2.84400010 16.57299995 1.000000 1.000000
1.75199997 2.82299995 16.00399971 1.000000 1.000000
2.19199991 2.86899996 16.33200073 1.000000 1.000000
4.72900009 3.39100003 17.24200058 1.000000 1.000000
2.53099990 3.18600011 14.22999954 1.000000 1.000000
4.53399992 3.37599993 16.73999977 1.000000 1.000000
5.05700016 3.42799997 17.21800041 1.000000 1.000000
4.63500023 3.39299989 16.39800072 1.000000 1.000000
5.21899986 3.45000005 16.96599960 1.000000 1.000000
5.21799994 3.46099997 16.23699951 1.000000 1.000000
5.94199991 3.53200006 17.02599907 1.000000 1.000000
4.78100014 3.43199992 14.88099957 1.000000 1.000000
4.78399992 3.43600011 14.62800026 1.000000 1.000000
4.66300011 3.42799997 14.19600010 1.000000 1.000000
5.63700008 3.52900004 14.85700035 1.000000 1.000000
1.24100006 2.97900009 18.26600075 1.000000 1.000000
2.15599990 3.06999993 19.17200089 1.000000 1.000000
2.11400008 3.06900001 18.89100075 1.000000 1.000000
2.57200003 3.12599993 18.57600021 1.000000 1.000000
1.69400001 3.04999995 16.98999977 1.000000 1.000000
2.16000009 3.10800004 16.65299988 1.000000 1.000000
3.23300004 3.21900010 17.34799957 1.000000 1.000000
3.66300011 3.26699996 17.45299911 1.000000 1.000000
4.14099979 3.73399997 14.42300034 1.000000 1.000000
5.89300013 3.89100003 16.66600037 1.000000 1.000000
5.26300001 3.84500003 15.26700020 1.000000 1.000000
3.83999991 3.72199988 13.21800041 1.000000 1.000000
2.94400001 3.66499996 10.85599995 1.000000 1.000000
0.80299997 3.27500010 18.61400032 1.000000 1.000000
1.03199995 3.29900002 18.67300034 1.000000 1.000000
1.05700004 3.30599999 18.47400093 1.000000 1.000000
1.61199999 3.36500001 18.70599937 1.000000 1.000000
0.86199999 3.30200005 17.54599953 1.000000 1.000000
1.23399997 3.34400010 17.54899979 1.000000 1.000000
2.24200010 3.44300008 18.36000061 1.000000 1.000000
2.50399995 3.48000002 18.00000000 1.000000 1.000000
3.53099990 3.61199999 17.24399948 1.000000 1.000000
3.63400006 3.62500000 17.15200043 1.000000 1.000000
4.02899981 3.67799997 16.72200012 1.000000 1.000000
4.07299995 3.68600011 16.53800011 1.000000 1.000000
4.24800014 3.70600009 16.54100037 1.000000 1.000000
4.00199986 3.68899989 15.96599960 1.000000 1.000000
4.13100004 3.70499992 15.89500046 1.000000 1.000000
4.32399988 3.72600007 15.92399979 1.000000 1.000000
5.07399988 3.80100012 16.47400093 1.000000 1.000000
5.00400019 4.01499987 16.31100082 1.000000 1.000000
3.67400002 3.92199993 13.42700005 1.000000 1.000000
0.83800000 3.49799991 18.34399986 1.000000 1.000000
1.34300005 3.54800010 18.74200058 1.000000 1.000000
1.15499997 3.54500008 17.82699966 1.000000 1.000000
2.18199992 3.65000010 18.42600060 1.000000 1.000000
1.77300000 3.62400007 17.45299911 1.000000 1.000000
3.20900011 3.77800012 17.91200066 1.000000 1.000000
4.02199984 3.89700007 16.64399910 1.000000 1.000000
4.12500000 3.91100001 16.53800011 1.000000 1.000000
4.20800018 3.92300010 16.40600014 1.000000 1.000000
4.20300007 3.92700005 16.16300011 1.000000 1.000000
1.96099997 3.98300004 14.97900009 1.000000 1.000000
3.90100002 4.15700006 17.10899925 1.000000 1.000000
3.56800008 4.14599991 15.93599987 1.000000 1.000000
4.14799976 4.19899988 16.48299980 1.000000 1.000000
4.29799986 4.21799994 16.44599915 1.000000 1.000000
4.36399984 4.22800016 16.29999924 1.000000 1.000000
5.01499987 4.30999994 15.98299980 1.000000 1.000000
3.39499998 4.18300009 13.43200016 1.000000 1.000000
5.24499989 4.34499979 15.57600021 1.000000 1.000000
1.04799998 3.80800009 18.07799911 1.000000 1.000000
0.38200000 3.76099992 16.78800011 1.000000 1.000000
1.58200002 3.87400007 17.81900024 1.000000 1.000000
2.20799994 3.94899988 17.70299911 1.000000 1.000000
2.41499996 3.97199988 17.73399925 1.000000 1.000000
1.63499999 3.93899989 15.29399967 1.000000 1.000000
1.16499996 4.18300009 18.31399918 1.000000 1.000000
2.31500006 4.31799984 18.16300011 1.000000 1.000000
3.61700010 4.50199986 16.82699966 1.000000 1.000000
3.16599989 4.47900009 15.73900032 1.000000 1.000000
3.26999998 4.55299997 13.38099957 1.000000 1.000000
3.43799996 4.91200018 16.79700089 1.000000 1.000000
2.59699988 4.86000013 15.43099976 1.000000 1.000000
3.96900010 4.97200012 16.80599976 1.000000 1.000000
4.60400009 5.07800007 15.75000000 1.000000 1.000000
3.67100000 5.03700018 13.66199970 1.000000 1.000000
1.07400000 5.05100012 15.93200016 1.000000 1.000000
3.35899997 5.86899996 13.99300003 1.000000 1.000000
4.73299980 0.75800002 18.41600037 1.000000 1.000000
4.65700006 0.75500000 18.58900070 1.000000 1.000000
3.92199993 0.68099999 18.18099976 1.000000 1.000000
4.41099977 0.44700000 18.40800095 1.000000 1.000000
4.86800003 1.37699997 5.65199995 1.000000 1.000000
4.13700008 0.96300000 10.23799992 1.000000 1.000000
4.06599998 0.95999998 10.43900013 1.000000 1.000000
4.03700018 0.96100003 10.69200039 1.000000 1.000000
3.99900007 0.95999998 10.92599964 1.000000 1.000000
4.65999985 1.12699997 18.61599922 1.000000 1.000000
2.80399990 0.94000000 17.21800041 1.000000 1.000000
3.78900003 1.35599995 13.03600025 1.000000 1.000000
3.72300005 1.35099995 13.24600029 1.000000 1.000000
3.14599991 1.30499995 13.76900005 1.000000 1.000000
2.60899997 1.28600001 16.65699959 1.000000 1.000000
3.84100008 1.40999997 18.00600052 1.000000 1.000000
3.95400000 1.42400002 18.35000038 1.000000 1.000000
4.92899990 1.37300003 4.80200005 1.000000 1.000000
4.65600014 1.37699997 7.49599981 1.000000 1.000000
4.51499987 1.68499994 8.88099957 1.000000 1.000000
4.49300003 1.68499994 9.13700008 1.000000 1.000000
3.31299996 1.64999998 18.37599945 1.000000 1.000000
4.48299980 1.91700006 10.07699966 1.000000 1.000000
4.48199987 1.91900003 10.34899998 1.000000 1.000000
4.60799980 1.93400002 10.76000023 1.000000 1.000000
4.51999998 1.98099995 9.98799992 1.000000 1.000000
4.49700022 1.98300004 10.51000023 1.000000 1.000000
4.59499979 1.99500000 10.89099979 1.000000 1.000000
4.00199986 1.95799994 13.31799984 1.000000 1.000000
3.78099990 1.96099997 16.50499916 1.000000 1.000000
2.76999998 1.80799997 17.23399925 1.000000 1.000000
2.35500002 1.77199996 17.37299919 1.000000 1.000000
4.44700003 2.01300001 10.12100029 1.000000 1.000000
4.43599987 2.01500010 10.39400005 1.000000 1.000000
4.48199987 2.02099991 10.72500038 1.000000 1.000000
2.51500010 1.89300001 16.82999992 1.000000 1.000000
2.31299996 1.87399995 16.90099907 1.000000 1.000000
2.25500011 1.87100005 17.10799980 1.000000 1.000000
2.10899997 1.86099994 17.48399925 1.000000 1.000000
2.14400005 1.86699998 17.77000046 1.000000 1.000000
2.08299994 1.86300004 17.97100067 1.000000 1.000000
2.05900002 1.86199999 18.19300079 1.000000 1.000000
2.69899988 1.86699998 17.05299950 1.000000 1.000000
2.34599996 1.83599997 17.25699997 1.000000 1.000000
2.39499998 1.84300005 17.54700089 1.000000 1.000000
2.19499993 1.82500005 17.62000084 1.000000 1.000000
2.12800002 1.82000005 17.81900024 1.000000 1.000000
2.12800002 1.82200003 18.06399918 1.000000 1.000000
2.04299998 1.81500006 18.24500084 1.000000 1.000000
2.48900008 1.85500002 16.85799980 1.000000 1.000000
2.30200005 1.83899999 16.95199966 1.000000 1.000000
2.52999997 1.86500001 17.40099907 1.000000 1.000000
1.94000006 1.80700004 17.14100075 1.000000 1.000000
2.28900003 1.84500003 17.70199966 1.000000 1.000000
2.28800011 1.85099995 18.20299911 1.000000 1.000000
4.60200024 2.00900006 10.71599960 1.000000 1.000000
4.49499989 2.00099993 10.88000011 1.000000 1.000000
4.50500011 1.96500003 9.95100021 1.000000 1.000000
4.47200012 1.96399999 10.20300007 1.000000 1.000000
4.42899990 1.96399999 10.44400024 1.000000 1.000000
4.56300020 1.98399997 11.13199997 1.000000 1.000000
4.38500023 1.98300004 10.22999954 1.000000 1.000000
4.41400003 1.96899998 10.55099964 1.000000 1.000000
4.42899990 1.97500002 10.83699989 1.000000 1.000000
3.09299994 1.89999998 14.15999985 1.000000 1.000000
2.41000009 1.88000000 17.16799927 1.000000 1.000000
2.39100003 1.88000000 16.86499977 1.000000 1.000000
2.40300012 1.88399994 17.13599968 1.000000 1.000000
4.36299992 1.89300001 9.57499981 1.000000 1.000000
4.42199993 1.90400004 9.92199993 1.000000 1.000000
4.43900013 1.90999997 10.21399975 1.000000 1.000000
4.35699987 1.90600002 10.40299988 1.000000 1.000000
4.45100021 1.96500003 10.02999973 1.000000 1.000000
4.51599979 1.97700000 10.38000011 1.000000 1.000000
3.78200006 1.92400002 14.72299957 1.000000 1.000000
2.68199992 1.85599995 16.80900002 1.000000 1.000000
2.40700006 1.83099997 16.82299995 1.000000 1.000000
2.38499999 1.83700001 17.31999969 1.000000 1.000000
2.13899994 1.81900001 17.59700012 1.000000 1.000000
2.14800000 1.82900000 18.10700035 1.000000 1.000000
1.99300003 1.81700003 18.22800064 1.000000 1.000000
4.48899984 1.75000000 8.87800026 1.000000 1.000000
4.50799990 1.75899994 9.18599987 1.000000 1.000000
4.52500010 1.77199996 9.75899982 1.000000 1.000000
5.34399986 1.88199997 11.43000031 1.000000 1.000000
2.96900010 1.75500000 16.07600021 1.000000 1.000000
2.01999998 1.69500005 17.52599907 1.000000 1.000000
4.65100002 1.52999997 7.20800018 1.000000 1.000000
4.72399998 1.54700005 7.57000017 1.000000 1.000000
4.68800020 1.54900002 7.83300018 1.000000 1.000000
4.61100006 1.54799998 8.03600025 1.000000 1.000000
5.40500021 1.70599997 11.40699959 1.000000 1.000000
4.12200022 1.62199998 12.85400009 1.000000 1.000000
4.03399992 1.62399995 13.30500031 1.000000 1.000000
3.42199993 1.70200002 18.67700005 1.000000 1.000000
4.92600012 1.37600005 4.85099983 1.000000 1.000000
4.85799980 1.41999996 6.58599997 1.000000 1.000000
4.79899979 1.42799997 7.11000013 1.000000 1.000000
4.68499994 1.42200005 7.27699995 1.000000 1.000000
4.65399981 1.42700005 7.54099989 1.000000 1.000000
4.62400007 1.43099999 7.80700016 1.000000 1.000000
4.02099991 1.51699996 12.79100037 1.000000 1.000000
4.11499977 1.53600001 13.15600014 1.000000 1.000000
3.52200007 1.47099996 12.85900021 1.000000 1.000000
3.17600012 1.50600004 15.17800045 1.000000 1.000000
3.48099995 1.62899995 18.50499916 1.000000 1.000000
3.35400009 1.62100005 18.63500023 1.000000 1.000000
3.54500008 1.59500003 18.19599915 1.000000 1.000000
3.36599994 1.58200002 18.28199959 1.000000 1.000000
3.43499994 1.59800005 18.59600067 1.000000 1.000000
4.96500015 1.30200005 4.42199993 1.000000 1.000000
4.90000010 1.30299997 4.66300011 1.000000 1.000000
4.92100000 1.31400001 4.98400021 1.000000 1.000000
4.87799978 1.31900001 5.24300003 1.000000 1.000000
4.74700022 1.33899999 6.29699993 1.000000 1.000000
4.81899977 1.35800004 6.67999983 1.000000 1.000000
4.80700016 1.36600006 6.95699978 1.000000 1.000000
4.68200016 1.37800002 7.71999979 1.000000 1.000000
4.94500017 1.33899999 4.95400000 1.000000 1.000000
4.83500004 1.38399994 6.64300013 1.000000 1.000000
4.77799988 1.38600004 6.87099981 1.000000 1.000000
4.63399982 1.39600003 7.58900023 1.000000 1.000000
4.60200024 1.40100002 7.85300016 1.000000 1.000000
3.80200005 1.48099995 12.64599991 1.000000 1.000000
3.68600011 1.47399998 12.80900002 1.000000 1.000000
3.51099992 1.46200001 12.91699982 1.000000 1.000000
3.62400007 1.42799997 12.55099964 1.000000 1.000000
3.87599993 1.46700001 13.05799961 1.000000 1.000000
3.67100000 1.45000005 13.12399960 1.000000 1.000000
3.55399990 1.63499999 18.13400078 1.000000 1.000000
4.71400023 1.51400006 7.42100000 1.000000 1.000000
4.68699980 1.51999998 7.69099998 1.000000 1.000000
4.62699986 1.52100003 7.91200018 1.000000 1.000000
4.07499981 1.63600004 12.95800018 1.000000 1.000000
3.34800005 1.79100001 16.29899979 1.000000 1.000000
2.90799999 1.74399996 16.14999962 1.000000 1.000000
2.83899999 1.76999998 17.10700035 1.000000 1.000000
2.47199988 1.74100006 17.29800034 1.000000 1.000000
4.48099995 1.64600003 8.72000027 1.000000 1.000000
5.68800020 1.84800005 11.36999989 1.000000 1.000000
5.46000004 1.82799995 11.40900040 1.000000 1.000000
2.66899991 1.84800005 16.73200035 1.000000 1.000000
2.43000007 1.82700002 16.77899933 1.000000 1.000000
2.20099998 1.82500005 17.33399963 1.000000 1.000000
4.49700022 1.81099999 9.79800034 1.000000 1.000000
5.23799992 1.93599999 11.38099957 1.000000 1.000000
3.95799994 1.94500005 14.97399998 1.000000 1.000000
3.71600008 1.99699998 17.06699944 1.000000 1.000000
2.48600006 1.86699998 16.71699905 1.000000 1.000000
4.12400007 2.08400011 18.42900085 1.000000 1.000000
3.84599996 1.89100003 14.69799995 1.000000 1.000000
3.64700007 1.93499994 16.58200073 1.000000 1.000000
5.39300013 1.86500001 11.40100002 1.000000 1.000000
3.80599999 1.88399994 15.74400043 1.000000 1.000000
3.50900006 1.87600005 16.26000023 1.000000 1.000000
2.64299989 1.81299996 16.75200081 1.000000 1.000000
2.56100011 1.81200004 16.94000053 1.000000 1.000000
2.39599991 1.82099998 17.54599953 1.000000 1.000000
2.21799994 1.80700004 17.64599991 1.000000 1.000000
4.79600000 1.48399997 6.94099998 1.000000 1.000000
5.59700012 1.74300003 11.21800041 1.000000 1.000000
5.60300016 1.75600004 11.49300003 1.000000 1.000000
5.29300022 1.81599998 13.61999989 1.000000 1.000000
4.09999990 1.67600000 12.99300003 1.000000 1.000000
2.52600002 1.69900000 17.02499962 1.000000 1.000000
4.96400023 1.33099997 5.56799984 1.000000 1.000000
4.84499979 1.37000000 6.63500023 1.000000 1.000000
4.68300009 1.37399995 7.06300020 1.000000 1.000000
4.71500015 1.39199996 7.38399982 1.000000 1.000000
5.62699986 1.66799998 11.45800018 1.000000 1.000000
5.38299990 1.64600003 11.49199963 1.000000 1.000000
3.98499990 1.57500005 12.83300018 1.000000 1.000000
3.96199989 1.55799997 12.89599991 1.000000 1.000000
4.10500002 1.60500002 13.22299957 1.000000 1.000000
3.57999992 1.54400003 12.97999954 1.000000 1.000000
3.37500000 1.52800000 13.05799961 1.000000 1.000000
4.85799980 1.28699994 5.57000017 1.000000 1.000000
4.82499981 1.31099999 6.13100004 1.000000 1.000000
4.78800011 1.32099998 6.39300013 1.000000 1.000000
4.72700024 1.34000003 6.91900015 1.000000 1.000000
4.72100019 1.35300004 7.19899988 1.000000 1.000000
5.24599981 1.71599996 13.61100006 1.000000 1.000000
4.10599995 1.56599998 12.77200031 1.000000 1.000000
4.18599987 1.49500000 12.39799976 1.000000 1.000000
4.03900003 1.50000000 12.79699993 1.000000 1.000000
3.70700002 1.46599996 12.73999977 1.000000 1.000000
4.79199982 1.16900003 4.96799994 1.000000 1.000000
4.83400011 1.19099998 5.32200003 1.000000 1.000000
4.89599991 1.21599996 5.68300009 1.000000 1.000000
4.84600019 1.22300005 5.92199993 1.000000 1.000000
4.80999994 1.23399997 6.18800020 1.000000 1.000000
4.75299978 1.24000001 6.41699982 1.000000 1.000000
4.63999987 1.23800004 6.59700012 1.000000 1.000000
4.63199997 1.25300002 6.89300013 1.000000 1.000000
4.70400000 1.10899997 6.28100014 1.000000 1.000000
4.68900013 1.13999999 6.86899996 1.000000 1.000000
4.68300009 1.15600002 7.15000010 1.000000 1.000000
4.64300013 1.16499996 7.39499998 1.000000 1.000000
4.58300018 1.17299998 7.62799978 1.000000 1.000000
4.59399986 1.19000006 7.92399979 1.000000 1.000000
4.55900002 1.20000005 8.18400002 1.000000 1.000000
4.48199987 1.20500004 8.39700031 1.000000 1.000000
4.41499996 1.21099997 8.62300014 1.000000 1.000000
4.18300009 1.22200000 9.23499966 1.000000 1.000000
4.21999979 1.24399996 9.54899979 1.000000 1.000000
4.09800005 1.24100006 9.71500015 1.000000 1.000000
4.15399981 1.26600003 10.05900002 1.000000 1.000000
4.15600014 1.28199995 10.34700012 1.000000 1.000000
4.14699984 1.29600000 10.61200047 1.000000 1.000000
4.04300022 1.30999994 11.06000042 1.000000 1.000000
4.09999990 1.39499998 12.49300003 1.000000 1.000000
3.42600012 1.32400000 12.37899971 1.000000 1.000000
3.74600005 1.40199995 13.22799969 1.000000 1.000000
3.62899995 1.44400001 14.18000031 1.000000 1.000000
2.52099991 1.48300004 16.80200005 1.000000 1.000000
3.51300001 1.66799998 18.44099998 1.000000 1.000000
4.67600012 1.05900002 7.10200024 1.000000 1.000000
4.62799978 1.07000005 7.34999990 1.000000 1.000000
4.59899998 1.08399999 7.62099981 1.000000 1.000000
4.57900000 1.09700000 7.88500023 1.000000 1.000000
4.55000019 1.10899997 8.13899994 1.000000 1.000000
4.51499987 1.12000000 8.39900017 1.000000 1.000000
4.45900011 1.12899995 8.62300014 1.000000 1.000000
4.42600012 1.13999999 8.87800026 1.000000 1.000000
4.25299978 1.14900005 9.28299999 1.000000 1.000000
4.31300020 1.17400002 9.62300014 1.000000 1.000000
4.17100000 1.16799998 9.75399971 1.000000 1.000000
4.25600004 1.19799995 10.13099957 1.000000 1.000000
4.19099998 1.20500004 10.34200001 1.000000 1.000000
4.20900011 1.22500002 10.64500046 1.000000 1.000000
4.09899998 1.24100006 11.10400009 1.000000 1.000000
4.21899986 1.29100001 11.76099968 1.000000 1.000000
4.04400015 1.31299996 12.41199970 1.000000 1.000000
4.01100016 1.32400000 12.65999985 1.000000 1.000000
3.89800000 1.32400000 12.82699966 1.000000 1.000000
3.85299993 1.34800005 13.31099987 1.000000 1.000000
3.48300004 1.35599995 14.03400040 1.000000 1.000000
3.49900007 1.60200000 18.17499924 1.000000 1.000000
3.26900005 1.59899998 18.47400093 1.000000 1.000000
4.47300005 0.98299998 8.75699997 1.000000 1.000000
4.39799976 0.99000001 8.97200012 1.000000 1.000000
4.30999994 1.02900004 9.72700024 1.000000 1.000000
4.28399992 1.04400003 9.98799992 1.000000 1.000000
4.22800016 1.05200005 10.20600033 1.000000 1.000000
4.19199991 1.06400001 10.45600033 1.000000 1.000000
4.05200005 1.05999994 10.60299969 1.000000 1.000000
4.01599979 0.97299999 11.03600025 1.000000 1.000000
3.81599998 1.12899995 12.02200031 1.000000 1.000000
3.73399997 1.16900003 12.76099968 1.000000 1.000000
3.45600009 1.21099997 13.84099960 1.000000 1.000000
3.55599999 1.47399998 17.82200050 1.000000 1.000000
4.13600016 0.89700001 9.75300026 1.000000 1.000000
4.09600019 0.93000001 10.28499985 1.000000 1.000000
4.01000023 0.93400002 10.47299957 1.000000 1.000000
4.07299995 0.96300000 10.81000042 1.000000 1.000000
3.86999989 0.98699999 11.44799995 1.000000 1.000000
2.28600001 1.20799994 16.88899994 1.000000 1.000000
2.57299995 0.96499997 17.34799957 1.000000 1.000000
2.79099989 0.90499997 17.39399910 1.000000 1.000000
4.52400017 1.02900004 18.38899994 1.000000 1.000000
4.67999983 1.08000004 18.78100014 1.000000 1.000000
4.55399990 1.07299995 18.48699951 1.000000 1.000000
2.77699995 1.15999997 16.06999969 1.000000 1.000000
3.83999991 1.44799995 18.05299950 1.000000 1.000000
4.47599983 1.08000004 8.56499958 1.000000 1.000000
4.40000010 1.09099996 8.76900005 1.000000 1.000000
4.30399990 1.10000002 8.96399975 1.000000 1.000000
4.19399977 1.10599995 9.13199997 1.000000 1.000000
4.27299976 1.14800000 9.50399971 1.000000 1.000000
4.12799978 1.14800000 9.64500046 1.000000 1.000000
4.17700005 1.18299997 9.98700047 1.000000 1.000000
4.15299988 1.20400000 10.23999977 1.000000 1.000000
4.14499998 1.22800004 10.50699997 1.000000 1.000000
4.11499977 1.25000000 10.76200008 1.000000 1.000000
4.13199997 1.27800000 11.05399990 1.000000 1.000000
4.18599987 1.41499996 12.49199963 1.000000 1.000000
4.15500021 1.43499994 12.73700047 1.000000 1.000000
3.67899990 1.39900005 12.81799984 1.000000 1.000000
3.01600003 1.57700002 15.39999962 1.000000 1.000000
2.67300010 1.61300004 16.13699913 1.000000 1.000000
2.53399992 1.65999997 16.77899933 1.000000 1.000000
2.68700004 1.71000004 17.16500092 1.000000 1.000000
2.49900007 1.74800003 17.77599907 1.000000 1.000000
2.16300011 1.73699999 17.97500038 1.000000 1.000000
4.68200016 1.00999999 7.60599995 1.000000 1.000000
4.58099985 1.01900005 7.79699993 1.000000 1.000000
4.54899979 1.03999996 8.06200027 1.000000 1.000000
4.55999994 1.07000005 8.36999989 1.000000 1.000000
5.11399984 1.21700001 2.34899998 1.000000 1.000000
5.54799986 2.44799995 16.27700043 1.000000 1.000000
2.87899995 2.01500010 14.02299976 1.000000 1.000000
2.69600010 2.00699997 14.11299992 1.000000 1.000000
2.67700005 2.02500010 14.35599995 1.000000 1.000000
3.26900005 2.25999999 16.47999954 1.000000 1.000000
4.04600000 1.28799999 11.25100040 1.000000 1.000000
4.06400013 1.31700003 11.55300045 1.000000 1.000000
3.85800004 1.30499995 11.62899971 1.000000 1.000000
4.05499983 1.36600006 12.09399986 1.000000 1.000000
2.63899994 2.19899988 16.42300034 1.000000 1.000000
3.92700005 2.48000002 18.34600067 1.000000 1.000000
3.73600006 2.47000003 18.43000031 1.000000 1.000000
3.46499991 2.46700001 18.67799950 1.000000 1.000000
3.31200004 2.46300006 18.80100060 1.000000 1.000000
5.17799997 1.20299995 2.10999990 1.000000 1.000000
3.95300007 2.74499989 14.62500000 1.000000 1.000000
2.71799994 2.91100001 18.12899971 1.000000 1.000000
2.64400005 2.91899991 18.31999969 1.000000 1.000000
1.47399998 2.81399989 18.30500031 1.000000 1.000000
1.56200004 3.34299994 17.53000069 1.000000 1.000000
1.33599997 3.38000011 18.33499908 1.000000 1.000000
0.84799999 3.37899995 18.92700005 1.000000 1.000000
4.20599985 3.22300005 12.60700035 1.000000 1.000000
3.94400001 4.07299995 17.01300049 1.000000 1.000000
0.74000001 3.83599997 17.73699951 1.000000 1.000000
4.78700018 3.39400005 14.23999977 1.000000 1.000000
4.72100019 3.40300012 14.44699955 1.000000 1.000000
4.71999979 3.42199993 14.71599960 1.000000 1.000000
4.83900023 3.46000004 15.09899998 1.000000 1.000000
4.39400005 3.40799999 14.93200016 1.000000 1.000000
5.09200001 3.53600001 15.84799957 1.000000 1.000000
5.04799986 3.56699991 16.32099915 1.000000 1.000000
3.69400001 3.79299998 13.09799957 1.000000 1.000000
2.80299997 2.46600008 16.65399933 1.000000 1.000000
3.72700000 2.81299996 14.39999962 1.000000 1.000000
4.47499990 1.19700003 8.55500031 1.000000 1.000000
4.18400002 1.33500004 10.56700039 1.000000 1.000000
4.13199997 1.34000003 10.21399975 1.000000 1.000000
5.95699978 3.25200009 16.85600090 1.000000 1.000000
5.72100019 2.67400002 15.18200016 1.000000 1.000000
5.52099991 3.06299996 14.44799995 1.000000 1.000000
5.42399979 1.65699995 14.11100006 1.000000 1.000000
5.47599983 2.59200001 15.06999969 1.000000 1.000000
5.47200012 2.60200000 15.32299995 1.000000 1.000000
5.53599977 3.70900011 16.39100075 1.000000 1.000000
5.50000000 3.31500006 16.79700089 1.000000 1.000000
5.46799994 2.86299992 16.70299911 1.000000 1.000000
5.48299980 3.16300011 17.16399956 1.000000 1.000000
5.20499992 3.65599990 16.22699928 1.000000 1.000000
5.20900011 3.83599997 16.84300041 1.000000 1.000000
5.15999985 3.19899988 17.06999969 1.000000 1.000000
5.18200016 3.59200001 17.58699989 1.000000 1.000000
5.24599981 1.40699995 0.63200003 1.000000 1.000000
5.24100018 1.39900005 0.92199999 1.000000 1.000000
4.78800011 1.31599998 5.15399981 1.000000 1.000000
4.78299999 1.34099996 5.73600006 1.000000 1.000000
4.77299976 1.22300005 5.90100002 1.000000 1.000000
4.77299976 1.25300002 6.19500017 1.000000 1.000000
4.77199984 1.27900004 6.49800014 1.000000 1.000000
4.77299976 1.34399998 6.81799984 1.000000 1.000000
4.77199984 1.36099994 7.10699987 1.000000 1.000000
4.87699986 3.82200003 15.21300030 1.000000 1.000000
4.85599995 3.64499998 16.03199959 1.000000 1.000000
