4.93699980 4.76599979 3.76799989 1.000000 1.000000
5.23299980 4.74700022 3.08599997 1.000000 1.000000
4.99100018 4.73099995 3.16499996 1.000000 1.000000
4.00199986 4.65399981 3.26999998 1.000000 1.000000
3.90000010 4.61899996 2.88400006 1.000000 1.000000
3.61100006 4.60500002 3.05100012 1.000000 1.000000
5.75000000 4.94299984 7.01000023 1.000000 1.000000
4.78999996 4.92799997 8.05300045 1.000000 1.000000
2.71900010 4.85200024 9.65799999 1.000000 1.000000
5.76800013 4.73400021 3.70400000 1.000000 1.000000
4.91400003 4.68800020 4.13800001 1.000000 1.000000
2.59299994 4.68400002 7.20300007 1.000000 1.000000
4.88399982 4.67199993 3.92499995 1.000000 1.000000
4.87699986 4.61999989 3.12800002 1.000000 1.000000
3.94400001 4.52500010 2.89199996 1.000000 1.000000
3.63100004 4.51000023 3.08299994 1.000000 1.000000
3.83500004 4.57800007 6.73000002 1.000000 1.000000
4.97399998 4.51300001 4.09600019 1.000000 1.000000
4.80900002 4.49700022 4.06599998 1.000000 1.000000
4.53900003 4.48199987 4.19700003 1.000000 1.000000
4.85799980 4.44700003 3.20900011 1.000000 1.000000
5.88700008 4.83199978 6.98999977 1.000000 1.000000
4.58599997 4.79899979 8.23099995 1.000000 1.000000
3.01399994 4.75400019 9.64799976 1.000000 1.000000
5.46199989 4.56199980 5.70699978 1.000000 1.000000
4.40500021 4.35599995 3.84800005 1.000000 1.000000
3.33800006 4.21400023 3.01699996 1.000000 1.000000
3.50399995 4.19700003 2.50000000 1.000000 1.000000
2.60500002 4.15199995 3.03699994 1.000000 1.000000
4.11100006 4.75899982 9.24600029 1.000000 1.000000
5.70699978 4.74900007 6.87699986 1.000000 1.000000
4.37099981 4.72900009 8.42000008 1.000000 1.000000
3.88800001 4.42700005 6.75199986 1.000000 1.000000
4.73999977 4.33599997 4.00600004 1.000000 1.000000
4.79899979 4.32100010 3.66300011 1.000000 1.000000
4.74599981 4.30499983 3.47000003 1.000000 1.000000
3.54900002 4.17899990 3.08899999 1.000000 1.000000
3.35200000 4.14799976 2.83999991 1.000000 1.000000
4.07000017 4.66099977 9.27999973 1.000000 1.000000
5.60599995 4.65199995 6.99300003 1.000000 1.000000
3.29299998 4.61499977 9.62199974 1.000000 1.000000
2.99399996 4.02400017 2.79399991 1.000000 1.000000
5.57000017 4.57999992 6.90299988 1.000000 1.000000
4.38899994 4.53100014 7.77600002 1.000000 1.000000
5.41699982 4.49100018 5.61999989 1.000000 1.000000
4.40899992 4.45800018 6.52199984 1.000000 1.000000
6.65999985 4.67999983 8.56099987 1.000000 1.000000
4.92700005 4.51000023 8.21500015 1.000000 1.000000
4.63399982 4.25799990 4.38100004 1.000000 1.000000
4.69199991 4.24300003 4.03100014 1.000000 1.000000
4.71700001 4.22800016 3.73799992 1.000000 1.000000
4.84899998 4.21299982 3.28800011 1.000000 1.000000
3.61700010 4.08699989 2.95199990 1.000000 1.000000
5.03800011 4.45100021 8.13700008 1.000000 1.000000
3.91799998 4.42700005 9.39799976 1.000000 1.000000
3.94799995 4.27500010 6.69700003 1.000000 1.000000
4.52099991 4.20499992 4.62500000 1.000000 1.000000
4.50899982 4.19000006 4.37699986 1.000000 1.000000
4.55600023 4.17500019 4.04199982 1.000000 1.000000
2.92400002 3.97399998 2.98399997 1.000000 1.000000
4.66400003 4.31500006 7.89300013 1.000000 1.000000
6.11999989 4.35400009 8.39000034 1.000000 1.000000
4.16699982 4.18400002 8.35000038 1.000000 1.000000
4.19600010 4.08900023 6.59700012 1.000000 1.000000
4.70599985 3.95000005 3.29299998 1.000000 1.000000
4.07299995 3.87199998 2.88100004 1.000000 1.000000
4.46799994 3.82699990 1.45500004 1.000000 1.000000
4.28000021 3.81100011 1.45700002 1.000000 1.000000
2.75300002 3.51600003 3.21300006 1.000000 1.000000
5.37699986 4.11299992 7.13000011 1.000000 1.000000
4.71799994 4.09200001 7.77199984 1.000000 1.000000
4.42799997 4.07499981 7.91800022 1.000000 1.000000
4.80900002 3.99799991 5.91699982 1.000000 1.000000
4.50600004 3.98099995 6.08300018 1.000000 1.000000
4.28299999 3.93799996 5.64699984 1.000000 1.000000
4.18499994 3.85299993 4.23500013 1.000000 1.000000
4.17199993 3.83800006 3.98600006 1.000000 1.000000
4.39400005 3.82399988 3.40100002 1.000000 1.000000
4.21600008 3.80800009 3.38899994 1.000000 1.000000
4.23400021 3.79399991 3.08800006 1.000000 1.000000
4.18800020 3.77900004 2.88000011 1.000000 1.000000
4.26900005 3.76399994 2.49300003 1.000000 1.000000
4.25699997 3.75000000 2.24200010 1.000000 1.000000
3.98799992 3.71799994 2.09800005 1.000000 1.000000
4.20300007 3.70300007 1.48699999 1.000000 1.000000
4.21899986 3.68799996 1.17600000 1.000000 1.000000
4.23999977 3.48900008 3.46499991 1.000000 1.000000
3.15499997 3.39599991 3.46700001 1.000000 1.000000
3.08100009 3.38100004 3.30500007 1.000000 1.000000
2.53699994 3.36599994 3.86800003 1.000000 1.000000
4.55000019 3.88299990 7.09399986 1.000000 1.000000
4.12099981 3.85100007 7.19399977 1.000000 1.000000
4.38600016 3.82599998 6.32100010 1.000000 1.000000
4.16599989 3.79699993 6.12699986 1.000000 1.000000
4.09499979 3.76799989 5.72200012 1.000000 1.000000
4.11800003 3.75500011 5.43900013 1.000000 1.000000
2.05399990 3.71199989 7.88800001 1.000000 1.000000
4.15899992 3.72600007 4.85300016 1.000000 1.000000
4.13000011 3.71199989 4.62900019 1.000000 1.000000
4.15899992 3.69799995 4.33099985 1.000000 1.000000
4.17600012 3.68300009 4.05200005 1.000000 1.000000
4.18699980 3.66899991 3.76699996 1.000000 1.000000
4.17600012 3.65400004 3.52200007 1.000000 1.000000
4.20400000 3.64000010 3.20700002 1.000000 1.000000
4.21799994 3.62500000 2.91300011 1.000000 1.000000
4.17799997 3.59400010 2.42300010 1.000000 1.000000
4.32499981 3.56399989 1.64900005 1.000000 1.000000
4.43699980 3.54900002 1.20500004 1.000000 1.000000
2.76200008 3.53099990 3.47600007 1.000000 1.000000
4.21500015 3.57699990 8.72000027 1.000000 1.000000
4.18699980 3.52200007 7.78599977 1.000000 1.000000
4.78700018 3.49900007 6.46899986 1.000000 1.000000
4.14400005 3.48099995 7.11600018 1.000000 1.000000
4.02899981 3.45099998 6.78200006 1.000000 1.000000
4.36800003 3.36800003 4.76499987 1.000000 1.000000
2.79900002 3.17000008 3.64199996 1.000000 1.000000
2.93799996 3.15499997 3.15199995 1.000000 1.000000
6.42799997 3.95199990 8.48799992 1.000000 1.000000
4.12200022 3.80399990 9.39000034 1.000000 1.000000
4.15799999 3.76699996 8.64299965 1.000000 1.000000
4.08500004 3.75300002 8.49899960 1.000000 1.000000
4.10799980 3.73900008 8.22099972 1.000000 1.000000
4.15100002 3.72600007 7.91499996 1.000000 1.000000
4.13199997 3.71199989 7.70300007 1.000000 1.000000
4.19000006 3.70000005 7.38500023 1.000000 1.000000
4.15799999 3.68600011 7.17999983 1.000000 1.000000
4.09499979 3.67199993 7.02600002 1.000000 1.000000
4.08900023 3.65799999 6.78100014 1.000000 1.000000
2.04500008 3.62700009 9.39700031 1.000000 1.000000
4.12500000 3.64400005 6.47800016 1.000000 1.000000
4.14400005 3.63000011 6.19399977 1.000000 1.000000
1.62500000 3.59800005 9.51399994 1.000000 1.000000
4.13899994 3.61700010 5.95300007 1.000000 1.000000
1.42299998 3.58400011 9.56799984 1.000000 1.000000
4.15199995 3.60400009 5.68599987 1.000000 1.000000
4.15600014 3.58899999 5.42000008 1.000000 1.000000
2.39400005 3.56399989 7.69600010 1.000000 1.000000
4.17399979 3.57599998 5.14200020 1.000000 1.000000
4.19500017 3.56100011 4.84899998 1.000000 1.000000
2.01399994 3.53399992 7.74399996 1.000000 1.000000
4.17500019 3.54600000 4.61499977 1.000000 1.000000
4.22900009 3.53200006 4.27099991 1.000000 1.000000
4.26999998 3.51799989 3.95199990 1.000000 1.000000
4.21999979 3.50399995 3.76500010 1.000000 1.000000
3.49499989 2.92400002 3.51399994 1.000000 1.000000
3.05999994 3.36299992 9.31000042 1.000000 1.000000
2.71300006 3.33299994 9.30700016 1.000000 1.000000
1.80700004 3.25999999 9.39200020 1.000000 1.000000
2.62500000 3.22300005 7.48400021 1.000000 1.000000
4.36800003 3.21700001 4.73099995 1.000000 1.000000
1.86800003 3.17799997 7.84000015 1.000000 1.000000
2.90000010 3.01900005 3.44099998 1.000000 1.000000
2.57100010 3.00399995 3.67799997 1.000000 1.000000
2.48600006 2.98900008 3.54299998 1.000000 1.000000
4.07000017 3.61500001 9.61200047 1.000000 1.000000
4.05900002 3.60100007 9.39000034 1.000000 1.000000
4.13700008 3.58899999 9.05599976 1.000000 1.000000
5.50299978 3.11500001 6.20800018 1.000000 1.000000
3.99499989 3.04600000 7.30000019 1.000000 1.000000
2.52600002 2.92499995 7.40199995 1.000000 1.000000
2.36199999 2.91000009 7.38600016 1.000000 1.000000
4.16300011 2.91799998 4.77899981 1.000000 1.000000
2.38299990 2.89599991 7.10099983 1.000000 1.000000
2.16000009 2.88000011 7.16800022 1.000000 1.000000
3.03999996 2.76500010 3.78399992 1.000000 1.000000
2.89100003 2.75000000 3.74300003 1.000000 1.000000
2.39299989 2.71900010 3.96399999 1.000000 1.000000
5.38899994 3.24300003 6.25600004 1.000000 1.000000
4.07900000 3.16100001 6.80999994 1.000000 1.000000
2.08699989 3.13400006 9.36600018 1.000000 1.000000
4.18300009 3.10999990 9.25699997 1.000000 1.000000
5.55800009 3.05900002 6.18800020 1.000000 1.000000
2.58100009 2.97399998 9.31999969 1.000000 1.000000
3.99799991 2.96099997 6.85400009 1.000000 1.000000
2.59100008 2.86599994 7.35099983 1.000000 1.000000
2.35100007 2.85100007 7.45300007 1.000000 1.000000
3.77099991 2.83200002 4.86899996 1.000000 1.000000
2.48600006 2.66499996 3.86199999 1.000000 1.000000
4.04099989 2.85400009 6.87300014 1.000000 1.000000
4.06799984 2.74699998 4.78399992 1.000000 1.000000
3.84899998 2.71700001 4.59000015 1.000000 1.000000
7.73299980 3.30699992 9.01599979 1.000000 1.000000
5.27500010 3.00699997 7.44099998 1.000000 1.000000
2.33200002 2.75999999 7.61600018 1.000000 1.000000
4.11100006 2.76099992 4.79099989 1.000000 1.000000
2.22099996 2.56200004 4.15700006 1.000000 1.000000
7.87500000 3.20099998 9.20499992 1.000000 1.000000
4.55800009 2.83800006 7.80999994 1.000000 1.000000
3.99399996 2.76399994 7.35699987 1.000000 1.000000
3.93400002 2.73799992 6.94700003 1.000000 1.000000
4.01200008 2.63199997 4.78800011 1.000000 1.000000
7.68100023 3.28500009 9.05900002 1.000000 1.000000
5.36700010 2.82200003 9.55900002 1.000000 1.000000
4.56400013 2.66199994 7.76900005 1.000000 1.000000
4.91400003 2.54200006 4.76599979 1.000000 1.000000
3.99499989 2.46199989 4.77199984 1.000000 1.000000
7.47300005 3.05900002 8.76299953 1.000000 1.000000
4.55100012 2.75399995 7.81400013 1.000000 1.000000
3.97099996 2.68099999 7.37900019 1.000000 1.000000
3.99699998 2.65599990 6.85699987 1.000000 1.000000
4.53999996 2.19799995 9.17300034 1.000000 1.000000
5.28900003 2.49000001 9.50800037 1.000000 1.000000
6.06500006 2.39499998 6.30900002 1.000000 1.000000
5.92100000 2.37899995 6.25000000 1.000000 1.000000
4.53800011 2.33999991 7.88299990 1.000000 1.000000
4.04699993 0.43000001 7.47800016 1.000000 1.000000
4.10500002 0.32400000 7.43400002 1.000000 1.000000
5.44799995 0.33700001 5.29699993 1.000000 1.000000
3.78399992 0.29300001 7.39799976 1.000000 1.000000
4.46600008 0.21100000 7.61499977 1.000000 1.000000
4.17600012 0.18000001 7.52600002 1.000000 1.000000
3.91100001 0.14900000 7.38899994 1.000000 1.000000
5.27400017 0.72299999 9.65699959 1.000000 1.000000
4.33799982 0.62900001 9.47700024 1.000000 1.000000
5.12200022 0.63800001 9.64000034 1.000000 1.000000
5.21299982 0.85299999 9.48900032 1.000000 1.000000
4.84299994 0.81999999 9.51000023 1.000000 1.000000
4.38199997 0.77399999 9.42199993 1.000000 1.000000
4.26399994 0.75800002 9.34000015 1.000000 1.000000
6.28900003 0.73500001 5.60599995 1.000000 1.000000
5.27799988 0.77999997 9.44999981 1.000000 1.000000
4.32999992 0.69700003 9.52799988 1.000000 1.000000
4.67799997 0.61100000 7.36000013 1.000000 1.000000
5.14799976 1.00800002 9.39500046 1.000000 1.000000
4.78000021 0.97600001 9.41100025 1.000000 1.000000
4.86000013 0.90600002 9.39599991 1.000000 1.000000
4.93900013 1.22200000 9.24100018 1.000000 1.000000
4.23699999 1.15699995 9.22500038 1.000000 1.000000
4.79199982 1.05700004 9.37500000 1.000000 1.000000
4.49800014 0.94499999 9.30700016 1.000000 1.000000
4.76599979 1.40499997 9.38300037 1.000000 1.000000
2.35100007 7.02099991 9.90499973 1.000000 1.000000
2.20799994 7.00600004 9.86600018 1.000000 1.000000
3.69199991 7.90799999 21.57699966 1.000000 1.000000
4.09499979 7.86499977 23.29100037 1.000000 1.000000
5.09399986 7.81699991 21.29800034 1.000000 1.000000
4.86899996 7.80100012 21.34700012 1.000000 1.000000
4.29300022 7.77899981 21.75000000 1.000000 1.000000
4.24399996 7.76599979 21.62599945 1.000000 1.000000
3.59899998 7.69799995 21.43000031 1.000000 1.000000
4.63399982 7.59000015 21.59199905 1.000000 1.000000
4.41699982 7.57499981 21.64299965 1.000000 1.000000
4.01499987 7.55700016 21.87400055 1.000000 1.000000
3.82599998 7.50699997 21.38299942 1.000000 1.000000
3.67199993 7.05600023 15.02700043 1.000000 1.000000
4.23000002 6.80900002 10.72900009 1.000000 1.000000
3.74000001 6.74900007 10.46599960 1.000000 1.000000
2.39199996 6.58500004 9.74199963 1.000000 1.000000
4.47599983 6.97399998 14.84099960 1.000000 1.000000
3.49099994 6.90100002 14.99600029 1.000000 1.000000
4.02600002 6.63700008 10.50000000 1.000000 1.000000
4.94799995 7.72300005 23.13599968 1.000000 1.000000
3.30800009 6.75199986 14.87100029 1.000000 1.000000
3.13499999 6.73799992 14.88199997 1.000000 1.000000
3.95199990 6.51700020 10.66499996 1.000000 1.000000
3.94499993 6.50199986 10.44699955 1.000000 1.000000
3.20600009 6.41099977 10.05799961 1.000000 1.000000
4.76599979 7.57900000 23.28100014 1.000000 1.000000
4.16599989 7.53299999 23.35799980 1.000000 1.000000
4.13199997 7.52099991 23.22999954 1.000000 1.000000
4.99599981 7.50199986 21.88400078 1.000000 1.000000
4.93599987 7.48899984 21.76899910 1.000000 1.000000
4.49399996 7.45800018 21.86300087 1.000000 1.000000
4.42299986 7.44500017 21.76799965 1.000000 1.000000
3.93799996 7.41400003 21.91699982 1.000000 1.000000
4.06300020 7.40500021 21.62100029 1.000000 1.000000
4.91400003 7.58699989 24.98200035 1.000000 1.000000
4.02099991 7.50099993 24.85099983 1.000000 1.000000
4.73699999 7.46099997 23.36400032 1.000000 1.000000
4.07900000 7.41400003 23.51099968 1.000000 1.000000
4.11700010 7.40399981 23.30599976 1.000000 1.000000
5.43900013 7.39300013 21.50399971 1.000000 1.000000
4.75799990 7.35699987 21.83600044 1.000000 1.000000
4.72599983 7.34499979 21.70100021 1.000000 1.000000
4.68300009 7.33300018 21.56999969 1.000000 1.000000
4.59899998 7.31899977 21.47900009 1.000000 1.000000
4.19299984 7.26499987 21.20199966 1.000000 1.000000
3.94099998 7.23699999 21.11400032 1.000000 1.000000
5.00400019 7.17799997 18.93600082 1.000000 1.000000
4.86000013 7.16400003 18.90299988 1.000000 1.000000
4.65999985 7.14900017 18.92900085 1.000000 1.000000
4.63000011 7.09700012 18.22500038 1.000000 1.000000
4.39300013 7.08199978 18.30100060 1.000000 1.000000
4.04899979 7.05299997 18.29899979 1.000000 1.000000
5.53800011 6.95900011 15.08600044 1.000000 1.000000
4.94099998 6.94099998 15.56999969 1.000000 1.000000
4.98600006 6.92799997 15.32400036 1.000000 1.000000
4.49800014 7.21299982 21.35899925 1.000000 1.000000
4.31799984 7.19799995 21.36400032 1.000000 1.000000
4.57200003 7.05800009 18.97100067 1.000000 1.000000
4.71500015 7.02199984 18.25600052 1.000000 1.000000
4.65299988 7.00899982 18.14200020 1.000000 1.000000
4.31799984 6.99300003 18.32500076 1.000000 1.000000
5.32499981 6.87400007 15.27400017 1.000000 1.000000
5.12699986 6.85900021 15.29599953 1.000000 1.000000
4.99700022 6.84399986 15.23999977 1.000000 1.000000
5.01100016 6.83099985 15.02700043 1.000000 1.000000
4.44999981 6.77199984 14.87800026 1.000000 1.000000
5.86899996 6.71099997 12.15699959 1.000000 1.000000
3.24200010 6.67000008 14.89700031 1.000000 1.000000
3.95499992 6.44000006 10.58399963 1.000000 1.000000
3.59699988 6.39599991 10.38099957 1.000000 1.000000
3.45799994 6.38199997 10.34200001 1.000000 1.000000
3.08100009 6.35099983 10.37399960 1.000000 1.000000
3.19499993 6.33500004 9.99199963 1.000000 1.000000
5.33900023 6.80499983 15.13300037 1.000000 1.000000
4.87300014 6.77400017 15.26700020 1.000000 1.000000
4.46099997 6.70300007 14.73700047 1.000000 1.000000
3.37299991 6.61499977 14.81900024 1.000000 1.000000
3.20099998 6.28599977 10.07699966 1.000000 1.000000
2.86400008 6.27099991 10.29399967 1.000000 1.000000
4.01700020 7.48799992 26.05299950 1.000000 1.000000
4.82100010 7.48699999 25.01399994 1.000000 1.000000
3.97099996 7.40199995 24.84900093 1.000000 1.000000
4.67899990 7.37500000 23.53599930 1.000000 1.000000
4.29899979 7.35599995 23.73399925 1.000000 1.000000
4.13000011 7.32000017 23.41099930 1.000000 1.000000
4.13999987 7.30800009 23.23200035 1.000000 1.000000
4.97499990 7.29099989 21.90600014 1.000000 1.000000
4.98999977 7.28000021 21.71699905 1.000000 1.000000
4.85300016 7.26599979 21.68799973 1.000000 1.000000
4.72499990 7.25199986 21.64900017 1.000000 1.000000
4.10599995 7.42000008 26.05299950 1.000000 1.000000
4.00899982 7.40700006 25.98500061 1.000000 1.000000
3.95799994 7.32299995 24.77400017 1.000000 1.000000
3.71000004 7.30700016 24.84700012 1.000000 1.000000
4.85200024 7.31300020 23.44499969 1.000000 1.000000
4.12300014 7.24100018 23.31699944 1.000000 1.000000
5.05299997 7.22900009 21.90600014 1.000000 1.000000
4.97800016 7.20400000 21.63999939 1.000000 1.000000
4.45599985 7.13700008 21.30100060 1.000000 1.000000
4.22200012 7.11000013 21.19300079 1.000000 1.000000
5.21999979 7.03200006 18.71899986 1.000000 1.000000
4.92799997 7.01499987 18.84300041 1.000000 1.000000
4.65000010 6.99800014 18.95899963 1.000000 1.000000
4.33900023 6.98199987 19.11300087 1.000000 1.000000
4.53999996 6.94799995 18.34199905 1.000000 1.000000
4.39300013 6.93400002 18.31200027 1.000000 1.000000
4.11700010 6.91699982 18.42300034 1.000000 1.000000
4.11700010 7.34600019 26.01099968 1.000000 1.000000
3.97799993 7.33199978 25.97999954 1.000000 1.000000
4.82999992 7.34600019 25.04700089 1.000000 1.000000
3.88700008 7.25000000 24.81599998 1.000000 1.000000
3.59100008 7.23199987 24.93499947 1.000000 1.000000
4.17899990 7.20499992 23.72900009 1.000000 1.000000
4.10900021 7.18300009 23.46999931 1.000000 1.000000
4.24599981 7.17500019 23.16900063 1.000000 1.000000
3.74399996 7.15199995 23.49300003 1.000000 1.000000
4.48099995 7.08199978 21.40600014 1.000000 1.000000
4.40899992 7.07000017 21.31200027 1.000000 1.000000
5.06500006 6.99200010 19.21599960 1.000000 1.000000
5.42100000 6.98600006 18.65299988 1.000000 1.000000
5.10300016 6.96899986 18.80900002 1.000000 1.000000
4.51100016 6.93400002 19.06699944 1.000000 1.000000
4.39200020 6.87400007 18.28100014 1.000000 1.000000
4.14900017 6.85799980 18.35799980 1.000000 1.000000
5.23999977 6.76200008 15.39500046 1.000000 1.000000
4.95300007 6.74599981 15.52700043 1.000000 1.000000
3.86700010 6.34399986 10.73900032 1.000000 1.000000
3.93300009 6.32900000 10.42199993 1.000000 1.000000
3.50099993 6.28499985 10.30399990 1.000000 1.000000
4.81599998 7.06400013 21.67000008 1.000000 1.000000
4.46000004 7.01300001 21.34600067 1.000000 1.000000
5.30499983 6.91800022 18.67200089 1.000000 1.000000
3.94300008 6.78800011 18.48299980 1.000000 1.000000
3.50099993 6.74499989 18.41500092 1.000000 1.000000
5.82000017 6.73500013 15.03800011 1.000000 1.000000
5.45200014 6.71600008 15.25199986 1.000000 1.000000
4.98099995 6.69700003 15.59200001 1.000000 1.000000
4.60099983 6.61600018 14.82400036 1.000000 1.000000
4.41599989 6.60099983 14.84399986 1.000000 1.000000
4.09499979 6.58400011 15.01700020 1.000000 1.000000
4.89900017 6.43400002 11.51599979 1.000000 1.000000
3.88800001 6.28700018 10.57600021 1.000000 1.000000
3.26099992 6.19999981 10.04199982 1.000000 1.000000
2.54699993 6.18300009 10.76399994 1.000000 1.000000
4.38299990 6.69999981 18.41300011 1.000000 1.000000
4.13800001 6.68300009 18.49200058 1.000000 1.000000
5.66800022 6.61499977 15.24100018 1.000000 1.000000
5.38199997 6.59800005 15.36200047 1.000000 1.000000
5.03900003 6.57900000 15.55799961 1.000000 1.000000
5.10300016 6.56899977 15.28899956 1.000000 1.000000
4.95599985 6.50400019 14.44299984 1.000000 1.000000
4.54799986 6.48500013 14.71899986 1.000000 1.000000
4.06599998 6.46700001 15.08899975 1.000000 1.000000
3.80200005 6.43800020 14.99800014 1.000000 1.000000
3.60400009 6.40999985 14.82100010 1.000000 1.000000
3.57999992 6.13000011 10.33600044 1.000000 1.000000
3.99600005 7.26499987 26.03800011 1.000000 1.000000
3.92400002 7.25299978 25.94599915 1.000000 1.000000
3.69099998 7.22800016 25.86100006 1.000000 1.000000
3.92300010 7.18499994 24.85099983 1.000000 1.000000
3.79099989 7.17199993 24.81999969 1.000000 1.000000
3.44400001 7.14200020 24.83300018 1.000000 1.000000
4.50299978 7.16099977 23.66300011 1.000000 1.000000
4.15700006 7.13100004 23.66300011 1.000000 1.000000
4.07399988 7.10799980 23.41500092 1.000000 1.000000
3.86400008 7.12599993 26.04899979 1.000000 1.000000
3.85599995 7.11600018 25.89999962 1.000000 1.000000
3.63000011 7.09000015 25.79000092 1.000000 1.000000
3.87800002 7.06799984 25.09300041 1.000000 1.000000
3.90400004 7.05900002 24.91300011 1.000000 1.000000
4.81500006 7.07600021 23.88899994 1.000000 1.000000
4.56500006 7.05900002 23.95999908 1.000000 1.000000
4.40199995 7.03399992 23.79100037 1.000000 1.000000
4.30499983 7.02099991 23.72400093 1.000000 1.000000
4.15799999 7.00699997 23.69899940 1.000000 1.000000
3.90000010 6.98999977 23.78899956 1.000000 1.000000
4.03800011 6.98400021 23.48800087 1.000000 1.000000
4.49599981 6.88999987 21.34199905 1.000000 1.000000
5.37799978 6.84499979 19.36499977 1.000000 1.000000
5.06099987 6.80399990 19.15600014 1.000000 1.000000
5.39400005 6.80000019 18.62599945 1.000000 1.000000
5.11399984 6.78299999 18.73600006 1.000000 1.000000
4.53200006 6.75899982 19.16900063 1.000000 1.000000
3.79200006 6.95400000 25.84600067 1.000000 1.000000
3.74099994 6.94399977 25.74099922 1.000000 1.000000
3.92199993 6.92899990 25.25300026 1.000000 1.000000
3.87299991 6.91800022 25.13699913 1.000000 1.000000
3.84699988 6.90700006 25.00799942 1.000000 1.000000
4.95800018 6.92899990 23.80200005 1.000000 1.000000
4.48699999 6.90600014 24.08200073 1.000000 1.000000
4.52799988 6.89799976 23.88500023 1.000000 1.000000
4.32999992 6.88199997 23.90800095 1.000000 1.000000
4.25099993 6.86899996 23.81900024 1.000000 1.000000
4.02799988 6.85300016 23.86800003 1.000000 1.000000
4.11700010 6.84499979 23.62199974 1.000000 1.000000
4.77400017 6.76900005 21.45599937 1.000000 1.000000
4.40500021 6.72700024 21.30800056 1.000000 1.000000
5.27500010 6.69199991 19.53100014 1.000000 1.000000
5.14900017 6.67799997 19.47900009 1.000000 1.000000
5.01599979 6.66400003 19.43400002 1.000000 1.000000
5.08599997 6.64300013 18.99600029 1.000000 1.000000
4.66800022 6.62300014 19.26000023 1.000000 1.000000
4.56300020 6.60900021 19.18499947 1.000000 1.000000
3.82599998 6.50400019 18.51300049 1.000000 1.000000
3.67100000 6.48999977 18.49399948 1.000000 1.000000
5.94000006 6.46799994 14.98499966 1.000000 1.000000
4.85900021 6.42600012 15.81499958 1.000000 1.000000
4.49100018 6.35900021 15.24100018 1.000000 1.000000
4.25199986 6.31799984 14.91199970 1.000000 1.000000
4.14799976 6.30299997 14.82900047 1.000000 1.000000
3.91799998 6.28800011 14.90299988 1.000000 1.000000
3.48099995 6.24499989 14.82499981 1.000000 1.000000
3.36999989 6.23099995 14.75100040 1.000000 1.000000
4.88800001 6.15500021 11.39900017 1.000000 1.000000
4.57299995 6.13800001 11.56900024 1.000000 1.000000
3.67600012 5.98000002 10.26399994 1.000000 1.000000
3.30399990 5.94999981 10.30099964 1.000000 1.000000
4.69299984 6.60400009 21.39299965 1.000000 1.000000
4.59499979 6.59000015 21.31599998 1.000000 1.000000
4.42999983 6.57600021 21.31399918 1.000000 1.000000
5.28100014 6.49399996 18.81200027 1.000000 1.000000
4.91200018 6.47499990 19.01700020 1.000000 1.000000
4.56099987 6.45599985 19.21100044 1.000000 1.000000
4.17899990 6.40399981 18.88999939 1.000000 1.000000
3.61800003 6.35900021 18.94700050 1.000000 1.000000
5.28200006 6.29300022 15.55900002 1.000000 1.000000
5.29899979 6.28000021 15.33699989 1.000000 1.000000
4.89400005 6.26100016 15.60400009 1.000000 1.000000
5.05100012 6.25199986 15.22299957 1.000000 1.000000
4.58199978 6.20699978 15.16100025 1.000000 1.000000
4.64099979 6.19600010 14.89599991 1.000000 1.000000
5.05299997 6.18900013 14.20199966 1.000000 1.000000
4.34899998 6.16699982 14.83199978 1.000000 1.000000
3.50099993 6.09200001 14.82299995 1.000000 1.000000
3.40199995 6.07800007 14.73400021 1.000000 1.000000
4.72300005 6.08099985 12.92899990 1.000000 1.000000
4.68599987 6.06699991 12.75699997 1.000000 1.000000
4.72900009 5.98699999 11.40600014 1.000000 1.000000
4.34800005 6.98099995 25.49399948 1.000000 1.000000
6.19999981 6.16099977 14.99600029 1.000000 1.000000
4.95100021 6.09000015 15.60700035 1.000000 1.000000
5.25899982 6.08199978 15.05700016 1.000000 1.000000
5.45200014 6.07200003 14.62899971 1.000000 1.000000
4.69500017 6.04899979 15.30799961 1.000000 1.000000
5.21099997 6.03000021 14.29399967 1.000000 1.000000
4.65399981 6.01000023 14.73999977 1.000000 1.000000
4.41699982 5.99499989 14.82100010 1.000000 1.000000
4.06099987 5.97700024 15.04399967 1.000000 1.000000
5.54899979 5.96899986 12.86299992 1.000000 1.000000
5.07800007 5.93699980 12.99400043 1.000000 1.000000
3.23000002 5.87799978 14.61200047 1.000000 1.000000
3.63700008 5.69299984 11.10400009 1.000000 1.000000
3.90400004 5.66599989 10.30700016 1.000000 1.000000
3.72900009 6.80100012 25.92799950 1.000000 1.000000
3.62299991 6.78800011 25.87500000 1.000000 1.000000
3.73399997 6.77199984 25.45999908 1.000000 1.000000
3.63199997 6.74900007 25.23500061 1.000000 1.000000
4.61499977 6.75799990 23.98500061 1.000000 1.000000
4.48999977 6.74399996 23.94499969 1.000000 1.000000
4.31300020 6.72900009 23.94700050 1.000000 1.000000
4.34399986 6.71999979 23.75900078 1.000000 1.000000
4.09399986 6.69199991 23.66699982 1.000000 1.000000
4.09700012 6.67199993 23.33699989 1.000000 1.000000
3.72399998 6.65299988 23.54199982 1.000000 1.000000
3.81399989 6.61299992 22.78300095 1.000000 1.000000
4.90000010 6.62900019 21.52300072 1.000000 1.000000
4.82299995 6.61700010 21.43000031 1.000000 1.000000
4.55600023 6.66099977 25.22599983 1.000000 1.000000
3.29099989 6.57499981 25.61800003 1.000000 1.000000
3.27399993 6.56599998 25.48200035 1.000000 1.000000
5.09399986 6.61600018 23.76099968 1.000000 1.000000
4.97100019 6.60300016 23.70999908 1.000000 1.000000
4.63600016 6.58199978 23.86300087 1.000000 1.000000
4.54400015 6.56899977 23.78400040 1.000000 1.000000
4.28499985 6.54199982 23.71100044 1.000000 1.000000
4.22700024 6.53000021 23.60000038 1.000000 1.000000
4.23600006 6.51999998 23.42799950 1.000000 1.000000
5.00099993 6.47499990 21.66300011 1.000000 1.000000
5.09299994 6.46700001 21.40200043 1.000000 1.000000
3.24300003 6.39099979 22.74600029 1.000000 1.000000
4.36000013 6.39499998 21.27499962 1.000000 1.000000
5.31799984 6.33699989 19.03000069 1.000000 1.000000
4.63100004 6.27699995 19.02099991 1.000000 1.000000
4.35099983 6.46700001 25.23299980 1.000000 1.000000
3.27999997 6.41800022 25.91799927 1.000000 1.000000
5.58300018 6.46999979 23.59700012 1.000000 1.000000
3.35400009 6.40000010 25.53199959 1.000000 1.000000
5.01700020 6.43499994 23.80500031 1.000000 1.000000
4.78100014 6.41900015 23.86899948 1.000000 1.000000
4.58900023 6.40299988 23.88599968 1.000000 1.000000
4.49100018 6.38999987 23.82099915 1.000000 1.000000
4.28200006 6.37400007 23.85300064 1.000000 1.000000
4.17199993 6.36100006 23.79199982 1.000000 1.000000
4.13600016 6.34899998 23.66099930 1.000000 1.000000
4.22399998 6.34100008 23.41399956 1.000000 1.000000
3.87899995 6.25899982 22.58900070 1.000000 1.000000
4.82000017 6.26999998 21.47500038 1.000000 1.000000
4.34600019 6.23699999 21.61100006 1.000000 1.000000
4.39699984 6.22700024 21.38199997 1.000000 1.000000
4.32299995 6.21400023 21.28000069 1.000000 1.000000
3.77200007 6.17999983 21.50200081 1.000000 1.000000
4.57200003 6.09399986 19.05800056 1.000000 1.000000
3.93899989 6.05900002 19.37500000 1.000000 1.000000
3.97799993 6.04799986 19.14699936 1.000000 1.000000
3.83299994 6.03399992 19.11899948 1.000000 1.000000
5.00899982 5.89300013 15.30900002 1.000000 1.000000
5.33599997 5.88500023 14.72700024 1.000000 1.000000
4.94700003 5.86700010 14.97999954 1.000000 1.000000
5.26599979 5.85900021 14.41100025 1.000000 1.000000
4.21099997 5.79300022 14.82600021 1.000000 1.000000
3.34800005 5.75799990 15.44999981 1.000000 1.000000
3.71399999 5.74900007 14.81599998 1.000000 1.000000
4.56099987 5.70499992 12.95199966 1.000000 1.000000
3.02399993 5.67799997 14.62100029 1.000000 1.000000
4.16800022 5.67399979 13.01099968 1.000000 1.000000
4.59200001 5.60799980 11.39700031 1.000000 1.000000
3.40899992 5.53200006 11.80700016 1.000000 1.000000
3.68099999 5.51900005 11.23200035 1.000000 1.000000
3.88800001 5.47700024 10.28899956 1.000000 1.000000
3.77900004 6.07700014 22.81299973 1.000000 1.000000
3.03299999 6.03800011 23.22400093 1.000000 1.000000
4.60699987 6.07200003 21.63500023 1.000000 1.000000
3.00900006 6.02699995 23.07799911 1.000000 1.000000
4.24800014 6.01999998 21.30900002 1.000000 1.000000
4.05600023 6.00500011 21.33699989 1.000000 1.000000
3.66300011 5.98600006 21.56599998 1.000000 1.000000
6.00299978 5.93599987 17.65200043 1.000000 1.000000
4.57999992 5.89900017 18.98699951 1.000000 1.000000
4.09899998 5.86700010 19.14699936 1.000000 1.000000
3.84899998 5.85099983 19.23200035 1.000000 1.000000
3.76200008 5.83799982 19.14699936 1.000000 1.000000
3.49399996 5.82200003 19.25499916 1.000000 1.000000
6.58400011 5.82000017 15.07400036 1.000000 1.000000
4.21400023 5.68499994 16.16399956 1.000000 1.000000
5.19500017 5.68400002 14.83600044 1.000000 1.000000
2.41400003 5.60099983 17.28599930 1.000000 1.000000
2.29200006 5.58799982 17.23999977 1.000000 1.000000
4.20699978 5.60799980 14.97599983 1.000000 1.000000
4.36700010 5.48799992 12.91600037 1.000000 1.000000
4.24700022 5.47300005 12.84599972 1.000000 1.000000
4.66800022 5.73199987 19.00200081 1.000000 1.000000
4.20699978 5.70100021 19.13199997 1.000000 1.000000
3.70900011 5.65700006 19.12299919 1.000000 1.000000
3.43000007 5.61800003 18.88100052 1.000000 1.000000
6.08699989 5.60400009 15.13300037 1.000000 1.000000
4.44099998 5.50500011 15.80799961 1.000000 1.000000
5.04600000 5.49900007 14.91100025 1.000000 1.000000
4.68400002 5.45599985 14.72999954 1.000000 1.000000
2.27800012 5.39400005 16.96999931 1.000000 1.000000
4.38100004 5.21899986 11.48400021 1.000000 1.000000
3.63800001 5.18900013 11.99800014 1.000000 1.000000
4.09399986 6.30299997 25.90200043 1.000000 1.000000
3.82500005 6.28599977 25.99099922 1.000000 1.000000
3.25999999 6.23000002 25.89699936 1.000000 1.000000
3.30200005 6.22100019 25.70000076 1.000000 1.000000
5.46099997 6.27699995 23.66699982 1.000000 1.000000
3.16100001 6.20800018 25.67900085 1.000000 1.000000
5.15799999 6.25899982 23.79299927 1.000000 1.000000
3.30500007 6.20200014 25.38400078 1.000000 1.000000
4.82299995 6.22900009 23.77700043 1.000000 1.000000
4.49100018 6.19999981 23.76799965 1.000000 1.000000
4.27799988 6.18400002 23.81399918 1.000000 1.000000
4.19799995 6.16200018 23.56299973 1.000000 1.000000
3.91799998 6.14400005 23.66900063 1.000000 1.000000
3.44700003 6.11100006 23.79800034 1.000000 1.000000
4.03999996 5.08699989 11.55300045 1.000000 1.000000
4.96199989 6.19099998 25.67099953 1.000000 1.000000
3.36700010 6.07700014 26.04599953 1.000000 1.000000
3.28999996 6.06500006 25.95999908 1.000000 1.000000
4.89599991 6.08500004 24.12899971 1.000000 1.000000
3.28699994 6.03399992 25.49200058 1.000000 1.000000
3.43799996 6.02899981 25.19499969 1.000000 1.000000
4.79600000 6.05100012 23.73699951 1.000000 1.000000
4.38600016 6.01999998 23.80299950 1.000000 1.000000
4.10900021 5.99200010 23.73699951 1.000000 1.000000
4.03000021 5.97900009 23.65299988 1.000000 1.000000
5.37300014 5.95499992 21.48500061 1.000000 1.000000
3.61999989 5.89499998 22.89800072 1.000000 1.000000
3.61899996 5.85099983 22.22500038 1.000000 1.000000
3.46000004 5.83699989 22.21400070 1.000000 1.000000
4.17199993 5.83900023 21.30800056 1.000000 1.000000
3.86100006 5.82200003 21.45800018 1.000000 1.000000
3.28800011 5.80000019 21.88299942 1.000000 1.000000
3.31299996 5.78999996 21.68199921 1.000000 1.000000
2.32299995 4.97599983 14.09099960 1.000000 1.000000
3.95600009 4.97200012 11.81099987 1.000000 1.000000
1.90699995 4.94799995 14.20100021 1.000000 1.000000
1.78600001 4.93400002 14.15100002 1.000000 1.000000
5.14799976 6.10699987 26.03100014 1.000000 1.000000
5.01800013 6.09399986 25.98900032 1.000000 1.000000
5.39799976 6.08400011 25.32699966 1.000000 1.000000
4.74100018 6.04600000 25.61599922 1.000000 1.000000
4.01599979 5.99599981 25.80900002 1.000000 1.000000
3.77800012 5.97900009 25.87100029 1.000000 1.000000
3.60899997 5.96400023 25.86899948 1.000000 1.000000
3.95799994 5.94399977 25.07500076 1.000000 1.000000
3.86599994 5.93100023 25.00600052 1.000000 1.000000
3.48300004 5.91099977 25.20800018 1.000000 1.000000
3.37100005 5.89900017 25.15299988 1.000000 1.000000
4.69299984 5.92199993 23.72599983 1.000000 1.000000
4.51900005 5.90700006 23.73200035 1.000000 1.000000
4.20599985 5.88899994 23.87299919 1.000000 1.000000
3.98900008 5.87300014 23.91699982 1.000000 1.000000
4.02899981 5.86299992 23.71800041 1.000000 1.000000
3.72799993 5.84600019 23.84600067 1.000000 1.000000
5.38299990 5.85200024 21.70899963 1.000000 1.000000
5.29699993 5.83900023 21.62599945 1.000000 1.000000
3.73000002 5.78200006 22.85199928 1.000000 1.000000
2.79500008 5.73999977 23.45400047 1.000000 1.000000
2.83500004 5.73000002 23.24600029 1.000000 1.000000
3.69300008 5.71700001 21.86899948 1.000000 1.000000
4.02699995 5.71199989 21.35499954 1.000000 1.000000
3.35899997 5.68800020 21.87100029 1.000000 1.000000
5.44899988 5.62200022 18.03599930 1.000000 1.000000
4.28100014 5.59100008 19.11400032 1.000000 1.000000
6.07499981 5.48299980 15.01399994 1.000000 1.000000
4.31400013 5.19999981 12.94999981 1.000000 1.000000
4.33099985 5.10300016 11.40799999 1.000000 1.000000
3.92499995 4.80100012 10.17899990 1.000000 1.000000
2.12800002 4.70900011 11.19799995 1.000000 1.000000
4.89200020 5.95699978 26.05999947 1.000000 1.000000
4.06699991 5.87400007 25.87800026 1.000000 1.000000
3.13599992 5.78999996 25.80699921 1.000000 1.000000
3.14800000 5.78000021 25.64299965 1.000000 1.000000
3.17400002 5.77099991 25.45899963 1.000000 1.000000
3.35599995 5.76599979 25.12999916 1.000000 1.000000
2.59100008 5.73699999 25.70299911 1.000000 1.000000
4.53800011 5.78599977 23.83399963 1.000000 1.000000
4.42100000 5.77199984 23.78000069 1.000000 1.000000
4.18300009 5.75500011 23.84300041 1.000000 1.000000
3.92700005 5.72900009 23.77000046 1.000000 1.000000
3.66100001 5.71199989 23.86400032 1.000000 1.000000
5.36899996 5.73099995 21.84799957 1.000000 1.000000
5.25099993 5.71700001 21.78899956 1.000000 1.000000
3.24200010 5.65999985 23.61700058 1.000000 1.000000
3.10299993 5.64699984 23.59399986 1.000000 1.000000
4.91900015 5.67700005 21.60799980 1.000000 1.000000
2.49799991 5.60300016 23.71699905 1.000000 1.000000
4.41499996 5.62200022 21.42399979 1.000000 1.000000
3.90499997 5.58900023 21.59900093 1.000000 1.000000
3.49300003 5.57000017 21.85499954 1.000000 1.000000
4.77400017 5.51599979 19.26799965 1.000000 1.000000
4.61399984 5.50099993 19.25300026 1.000000 1.000000
4.40399981 5.47399998 19.11199951 1.000000 1.000000
5.34399986 5.29199982 14.96700001 1.000000 1.000000
4.57299995 5.23199987 15.06799984 1.000000 1.000000
4.29500008 5.20200014 14.97900009 1.000000 1.000000
4.37900019 5.19000006 14.67199993 1.000000 1.000000
6.26200008 5.14099979 11.36100006 1.000000 1.000000
4.83099985 5.11499977 12.87800026 1.000000 1.000000
4.38600016 5.08400011 12.99699974 1.000000 1.000000
4.29799986 5.05700016 12.67899990 1.000000 1.000000
3.92300010 5.02600002 12.71700001 1.000000 1.000000
3.81699991 4.99800014 12.41199970 1.000000 1.000000
5.01399994 5.88299990 26.05299950 1.000000 1.000000
5.49900007 5.81899977 24.34199905 1.000000 1.000000
5.32700014 5.80399990 24.33600044 1.000000 1.000000
4.88299990 5.77099991 24.42799950 1.000000 1.000000
3.08400011 5.71099997 25.95800018 1.000000 1.000000
4.86999989 5.76000023 24.27499962 1.000000 1.000000
3.07500005 5.69999981 25.80800056 1.000000 1.000000
3.29500008 5.69700003 25.44599915 1.000000 1.000000
3.10800004 5.68300009 25.46999931 1.000000 1.000000
3.31200004 5.67899990 25.11400032 1.000000 1.000000
4.62099981 5.70300007 23.69899940 1.000000 1.000000
4.43400002 5.68800020 23.71199989 1.000000 1.000000
3.93199992 5.65399981 23.86400032 1.000000 1.000000
3.79500008 5.64099979 23.83799934 1.000000 1.000000
3.98399997 5.60400009 22.98999977 1.000000 1.000000
2.95700002 5.56899977 23.84499931 1.000000 1.000000
4.93499994 5.61700010 21.87000084 1.000000 1.000000
3.07500005 5.56099987 23.55999947 1.000000 1.000000
2.63000011 5.54099989 23.84900093 1.000000 1.000000
4.80299997 5.59200001 21.65900040 1.000000 1.000000
4.77500010 5.58099985 21.51899910 1.000000 1.000000
4.54400015 5.56500006 21.57699966 1.000000 1.000000
4.42600012 5.55200005 21.52799988 1.000000 1.000000
2.27300000 5.49200010 23.55599976 1.000000 1.000000
4.25099993 5.53700018 21.53000069 1.000000 1.000000
3.91300011 5.51800013 21.70000076 1.000000 1.000000
4.10599995 5.51100016 21.32399940 1.000000 1.000000
5.56199980 5.52099991 19.46599960 1.000000 1.000000
5.51200008 5.50799990 19.33300018 1.000000 1.000000
4.71099997 5.43400002 19.26199913 1.000000 1.000000
5.64099979 5.44199991 18.08600044 1.000000 1.000000
4.30399990 5.39300013 19.15299988 1.000000 1.000000
3.83999991 5.18300009 16.42799950 1.000000 1.000000
4.20200014 5.17600012 15.81299973 1.000000 1.000000
2.98600006 5.13500023 16.84199905 1.000000 1.000000
4.12799978 5.13800001 15.30399990 1.000000 1.000000
2.25000000 5.10200024 17.32500076 1.000000 1.000000
4.28599977 5.12699986 14.91300011 1.000000 1.000000
2.12100005 5.08799982 17.28100014 1.000000 1.000000
4.34299994 5.11499977 14.63799953 1.000000 1.000000
3.20600009 5.01300001 14.56799984 1.000000 1.000000
4.32000017 5.01000023 12.98700047 1.000000 1.000000
4.36600018 4.99700022 12.72000027 1.000000 1.000000
4.22599983 4.98400021 12.68400002 1.000000 1.000000
3.94899988 4.96700001 12.81000042 1.000000 1.000000
2.46399999 4.91499996 14.03299999 1.000000 1.000000
3.83100009 4.91099977 12.08500004 1.000000 1.000000
4.23000002 4.90100002 11.36299992 1.000000 1.000000
1.75899994 4.87099981 14.30500031 1.000000 1.000000
4.08699989 4.88700008 11.32800007 1.000000 1.000000
3.31500006 4.81199980 11.19900036 1.000000 1.000000
5.64099979 5.73000002 24.52000046 1.000000 1.000000
5.62599993 5.71999979 24.36899948 1.000000 1.000000
3.72900009 5.64400005 25.81100082 1.000000 1.000000
2.98000002 5.59399986 26.05100060 1.000000 1.000000
4.80700016 5.64599991 24.32699966 1.000000 1.000000
3.03200006 5.58599997 25.84399986 1.000000 1.000000
3.18600011 5.58099985 25.54000092 1.000000 1.000000
3.22399998 5.57299995 25.34300041 1.000000 1.000000
3.27300000 5.56400013 25.14200020 1.000000 1.000000
3.32900000 5.55600023 24.93099976 1.000000 1.000000
4.45100021 5.57700014 23.68300056 1.000000 1.000000
4.30600023 5.56300020 23.66200066 1.000000 1.000000
4.00699997 5.54500008 23.78499985 1.000000 1.000000
3.88499999 5.53100014 23.73699951 1.000000 1.000000
5.50299978 5.56300020 21.97999954 1.000000 1.000000
5.00799990 5.53000021 22.13400078 1.000000 1.000000
4.93200016 5.51700020 22.03599930 1.000000 1.000000
3.90000010 5.48099995 22.89999962 1.000000 1.000000
2.83699989 5.44500017 23.79500008 1.000000 1.000000
2.63599992 5.42899990 23.82900047 1.000000 1.000000
2.42300010 5.40399981 23.71699905 1.000000 1.000000
4.42199993 5.45200014 21.68499947 1.000000 1.000000
2.42199993 5.39400005 23.55699921 1.000000 1.000000
6.13000011 5.47100019 19.59000015 1.000000 1.000000
3.53800011 5.38899994 21.90500069 1.000000 1.000000
5.68900013 5.42700005 19.49799919 1.000000 1.000000
5.56300020 5.41300011 19.44400024 1.000000 1.000000
5.39300013 5.39799976 19.44099998 1.000000 1.000000
5.32399988 5.38600016 19.33399963 1.000000 1.000000
4.98199987 5.35500002 19.32999992 1.000000 1.000000
4.80399990 5.34000015 19.33300018 1.000000 1.000000
5.66800022 5.34700012 18.22299957 1.000000 1.000000
5.26999998 5.32700014 18.45899963 1.000000 1.000000
4.28100014 5.28499985 19.16099930 1.000000 1.000000
5.57100010 5.14300013 15.02700043 1.000000 1.000000
5.58099985 5.13000011 14.80799961 1.000000 1.000000
3.89499998 5.07900000 16.35700035 1.000000 1.000000
4.14900017 5.07100010 15.85999966 1.000000 1.000000
3.51500010 5.02600002 16.01300049 1.000000 1.000000
4.26900005 5.02400017 14.91600037 1.000000 1.000000
4.26200008 5.01100016 14.72399998 1.000000 1.000000
3.94000006 4.99399996 14.90100002 1.000000 1.000000
3.26200008 4.91099977 14.49199963 1.000000 1.000000
4.19299984 4.90700006 13.13500023 1.000000 1.000000
4.31500006 4.89499998 12.76500034 1.000000 1.000000
4.21000004 4.88000011 12.67700005 1.000000 1.000000
3.28900003 4.80700016 12.76299953 1.000000 1.000000
4.20400000 4.80100012 11.37600040 1.000000 1.000000
2.74200010 4.73600006 12.38000011 1.000000 1.000000
5.54600000 5.63000011 24.53199959 1.000000 1.000000
5.51999998 5.61999989 24.39699936 1.000000 1.000000
5.08099985 5.58699989 24.47500038 1.000000 1.000000
4.63700008 5.54400015 24.40999985 1.000000 1.000000
3.64899993 5.50600004 25.18300056 1.000000 1.000000
3.13299990 5.48199987 25.52099991 1.000000 1.000000
3.40499997 5.46999979 24.93700027 1.000000 1.000000
3.26300001 5.45599985 24.91200066 1.000000 1.000000
3.41100001 5.45100021 24.61199951 1.000000 1.000000
4.30499983 5.46700001 23.58399963 1.000000 1.000000
4.11999989 5.45200014 23.59600067 1.000000 1.000000
3.76300001 5.43200016 23.78400040 1.000000 1.000000
5.44399977 5.46799994 21.95999908 1.000000 1.000000
3.36700010 5.40199995 23.84000015 1.000000 1.000000
5.03800011 5.44700003 22.18700027 1.000000 1.000000
3.11400008 5.37500000 23.76499939 1.000000 1.000000
3.00200009 5.36299992 23.71599960 1.000000 1.000000
2.73399997 5.34600019 23.81800079 1.000000 1.000000
2.51699996 5.32000017 23.70999908 1.000000 1.000000
2.40499997 5.30800009 23.65600014 1.000000 1.000000
6.01999998 5.37699986 19.60899925 1.000000 1.000000
4.11499977 5.30999994 21.21999931 1.000000 1.000000
5.46899986 5.32100010 19.45400047 1.000000 1.000000
5.42100000 5.30900002 19.31699944 1.000000 1.000000
5.34700012 5.29600000 19.20899963 1.000000 1.000000
4.71000004 5.24800014 19.34300041 1.000000 1.000000
4.55600023 5.23500013 19.32799911 1.000000 1.000000
4.34000015 5.20800018 19.18700027 1.000000 1.000000
5.62099981 5.05900002 14.85299969 1.000000 1.000000
3.84400010 4.99300003 16.31399918 1.000000 1.000000
4.15299988 4.98699999 15.75899982 1.000000 1.000000
3.38000011 4.95100021 16.26300049 1.000000 1.000000
4.19399977 4.93900013 14.89900017 1.000000 1.000000
4.26499987 4.92799997 14.61499977 1.000000 1.000000
3.33800006 4.84100008 14.49100018 1.000000 1.000000
4.18300009 4.80100012 12.60400009 1.000000 1.000000
2.66499996 4.74599981 13.86400032 1.000000 1.000000
3.89000010 4.74599981 12.10599995 1.000000 1.000000
4.17199993 4.72300005 11.30700016 1.000000 1.000000
2.36999989 4.56099987 11.19099998 1.000000 1.000000
5.24700022 5.50400019 24.62700081 1.000000 1.000000
5.21500015 5.49399996 24.49900055 1.000000 1.000000
4.64300013 5.42899990 24.21800041 1.000000 1.000000
4.50799990 5.40600014 24.02599907 1.000000 1.000000
2.69300008 5.34200001 25.61000061 1.000000 1.000000
3.36299992 5.35300016 24.80800056 1.000000 1.000000
3.39700007 5.34399986 24.61300087 1.000000 1.000000
3.38899994 5.33400011 24.45700073 1.000000 1.000000
4.09000015 5.34499979 23.60499954 1.000000 1.000000
4.11299992 5.33599997 23.41900063 1.000000 1.000000
5.12699986 5.34399986 22.08099937 1.000000 1.000000
3.19099998 5.28100014 23.84099960 1.000000 1.000000
3.52399993 5.28000021 23.34000015 1.000000 1.000000
4.58699989 5.28900003 21.92900085 1.000000 1.000000
4.66499996 5.28100014 21.68099976 1.000000 1.000000
2.38800001 5.21099997 23.82600021 1.000000 1.000000
5.76900005 5.28999996 20.20700073 1.000000 1.000000
3.63499999 5.22399998 22.21999931 1.000000 1.000000
6.03100014 5.27500010 19.58200073 1.000000 1.000000
3.64000010 5.20300007 21.86700058 1.000000 1.000000
4.07700014 5.20400000 21.23800087 1.000000 1.000000
3.75799990 5.18599987 21.39699936 1.000000 1.000000
3.50099993 5.17000008 21.49500084 1.000000 1.000000
5.38899994 5.21700001 19.52000046 1.000000 1.000000
5.34700012 5.20400000 19.37800026 1.000000 1.000000
3.40899992 5.14599991 21.24300003 1.000000 1.000000
5.19500017 5.19000006 19.35899925 1.000000 1.000000
5.22399998 5.17899990 19.14100075 1.000000 1.000000
5.83099985 5.18300009 18.30800056 1.000000 1.000000
5.43499994 5.16200018 18.54000092 1.000000 1.000000
4.81099987 5.12699986 18.84600067 1.000000 1.000000
4.28499985 5.10400009 19.22599983 1.000000 1.000000
6.24200010 4.99599981 14.53600025 1.000000 1.000000
5.44199991 4.94500017 14.83699989 1.000000 1.000000
5.34999990 4.93100023 14.73700047 1.000000 1.000000
4.19099998 4.88700008 15.68500042 1.000000 1.000000
3.29200006 4.84800005 16.34399986 1.000000 1.000000
4.20900011 4.83900023 14.85599995 1.000000 1.000000
4.04199982 4.82399988 14.84599972 1.000000 1.000000
3.29600000 4.74100018 14.52000046 1.000000 1.000000
1.87100005 4.69700003 15.85900021 1.000000 1.000000
4.11700010 4.72700024 13.08199978 1.000000 1.000000
4.25199986 4.70300007 12.49300003 1.000000 1.000000
3.05200005 4.65100002 13.35599995 1.000000 1.000000
4.10599995 4.62400007 11.35599995 1.000000 1.000000
4.68100023 5.35500002 24.42200089 1.000000 1.000000
4.66300011 5.33699989 24.10799980 1.000000 1.000000
4.55999994 5.32299995 24.04000092 1.000000 1.000000
4.57700014 5.31500006 23.86400032 1.000000 1.000000
2.67600012 5.24700022 25.54000092 1.000000 1.000000
4.46500015 5.30200005 23.81200027 1.000000 1.000000
2.68199992 5.23799992 25.37299919 1.000000 1.000000
3.37199998 5.25000000 24.54599953 1.000000 1.000000
3.42499995 5.24200010 24.32999992 1.000000 1.000000
3.51799989 5.23500013 24.07099915 1.000000 1.000000
4.11899996 5.24300003 23.31200027 1.000000 1.000000
3.89899993 5.22800016 23.36599922 1.000000 1.000000
3.33800006 5.20200014 23.76000023 1.000000 1.000000
4.42700005 5.21400023 22.34000015 1.000000 1.000000
4.74700022 5.20300007 21.66699982 1.000000 1.000000
4.63600016 5.19000006 21.60499954 1.000000 1.000000
2.22300005 5.10400009 23.73299980 1.000000 1.000000
5.65999985 5.19899988 20.21500015 1.000000 1.000000
3.51200008 5.13000011 22.23999977 1.000000 1.000000
3.60400009 5.12200022 21.97800064 1.000000 1.000000
4.21099997 5.12900019 21.17300034 1.000000 1.000000
4.00000000 5.11299992 21.21400070 1.000000 1.000000
3.55699992 5.09100008 21.49799919 1.000000 1.000000
3.47399998 5.06899977 21.24399948 1.000000 1.000000
6.06799984 5.13600016 18.51000023 1.000000 1.000000
4.95800018 5.08599997 19.31299973 1.000000 1.000000
4.71999979 5.06899977 19.37999916 1.000000 1.000000
5.50600004 5.07800007 18.35000038 1.000000 1.000000
4.56799984 5.04400015 19.16799927 1.000000 1.000000
4.28800011 5.02699995 19.28899956 1.000000 1.000000
6.14599991 4.92399979 14.70699978 1.000000 1.000000
4.35599995 4.86499977 16.36499977 1.000000 1.000000
5.26800013 4.84800005 14.70199966 1.000000 1.000000
2.73300004 4.78700018 17.45700073 1.000000 1.000000
4.68800020 4.81300020 14.96399975 1.000000 1.000000
2.68499994 4.75400019 16.93799973 1.000000 1.000000
4.16099977 4.75699997 14.78199959 1.000000 1.000000
4.36999989 4.72399998 13.89900017 1.000000 1.000000
3.13899994 4.65700006 14.57900047 1.000000 1.000000
4.10099983 4.64699984 12.96199989 1.000000 1.000000
2.31399989 4.54899979 13.93400002 1.000000 1.000000
4.07600021 4.55900002 11.46599960 1.000000 1.000000
3.47099996 4.53900003 12.01500034 1.000000 1.000000
3.56100011 4.50199986 11.23700047 1.000000 1.000000
5.43900013 5.51999998 24.60799980 1.000000 1.000000
2.41300011 5.10900021 25.45999908 1.000000 1.000000
2.55200005 5.10400009 25.16300011 1.000000 1.000000
3.64100003 5.12900019 23.93700027 1.000000 1.000000
3.58800006 5.11800003 23.82200050 1.000000 1.000000
3.61400008 5.11000013 23.62899971 1.000000 1.000000
3.55399990 5.09800005 23.52199936 1.000000 1.000000
5.17100000 5.14699984 21.90999985 1.000000 1.000000
3.92899990 5.09999990 22.98200035 1.000000 1.000000
3.41400003 5.07600021 23.33499908 1.000000 1.000000
5.16300011 5.12799978 21.57799911 1.000000 1.000000
4.59100008 5.10099983 21.97800064 1.000000 1.000000
