0.65399998 0.41800001 0.91399997 1.000000 1.000000
0.56300002 0.46000001 0.92299998 1.000000 1.000000
0.70899999 0.44600001 0.90799999 1.000000 1.000000
0.56400001 0.47700000 0.92600000 1.000000 1.000000
0.61600000 0.47200000 0.91700000 1.000000 1.000000
1.09399998 0.89899999 0.92100000 1.000000 1.000000
1.11500001 1.08099997 0.91200000 1.000000 1.000000
1.16700006 1.11099994 0.90700001 1.000000 1.000000
1.13399994 1.13999999 0.92400002 1.000000 1.000000
1.15999997 1.13100004 0.91600001 1.000000 1.000000
1.03299999 1.17799997 0.91799998 1.000000 1.000000
1.07900000 1.17900002 0.92100000 1.000000 1.000000
0.75500000 1.21099997 0.92299998 1.000000 1.000000
0.74900001 1.22800004 0.91600001 1.000000 1.000000
0.76300001 1.23399997 0.91399997 1.000000 1.000000
0.53700000 0.45800000 0.93400002 1.000000 1.000000
0.51200002 0.47799999 0.95200002 1.000000 1.000000
0.53299999 0.47999999 0.94499999 1.000000 1.000000
0.57900000 0.49800000 0.95700002 1.000000 1.000000
0.38499999 0.54799998 0.95700002 1.000000 1.000000
0.41200000 0.54799998 0.94800001 1.000000 1.000000
0.50900000 0.52399999 0.95800000 1.000000 1.000000
0.52600002 0.53600001 0.95099998 1.000000 1.000000
0.40599999 0.55500001 0.95599997 1.000000 1.000000
0.75000000 1.21000004 0.94000000 1.000000 1.000000
1.08599997 1.22099996 0.93800002 1.000000 1.000000
0.62400001 0.46200001 0.98600000 1.000000 1.000000
0.62800002 0.48600000 0.98199999 1.000000 1.000000
0.69300002 0.48300001 0.97399998 1.000000 1.000000
0.70800000 0.48500001 0.97399998 1.000000 1.000000
0.47700000 0.51499999 0.96899998 1.000000 1.000000
0.47200000 0.53700000 0.97200000 1.000000 1.000000
0.59899998 0.53399998 0.97000003 1.000000 1.000000
0.61600000 0.53100002 0.97299999 1.000000 1.000000
0.67600000 0.53100002 0.97500002 1.000000 1.000000
0.36300001 0.56900001 0.96499997 1.000000 1.000000
0.35400000 0.63300002 0.97399998 1.000000 1.000000
0.35800001 0.67500001 0.97299999 1.000000 1.000000
0.37799999 0.72700000 0.98799998 1.000000 1.000000
0.40599999 0.72700000 0.98699999 1.000000 1.000000
0.41100001 0.77899998 0.98600000 1.000000 1.000000
1.09500003 0.93300003 0.96600002 1.000000 1.000000
0.97200000 1.06200004 0.97500002 1.000000 1.000000
0.98199999 1.07400000 0.97899997 1.000000 1.000000
1.10099995 1.10899997 0.97200000 1.000000 1.000000
1.02600002 1.13800001 0.97600001 1.000000 1.000000
1.10300004 1.13399994 0.97299999 1.000000 1.000000
0.74699998 1.17200005 0.98600000 1.000000 1.000000
1.04100001 1.16999996 0.97100002 1.000000 1.000000
1.07000005 1.17999995 0.97600001 1.000000 1.000000
1.10699999 1.17400002 0.96399999 1.000000 1.000000
0.75199997 1.19599998 0.97399998 1.000000 1.000000
0.86000001 1.30200005 0.98900002 1.000000 1.000000
0.67600000 0.40099999 1.01499999 1.000000 1.000000
0.65700001 0.42100000 1.00999999 1.000000 1.000000
0.65200001 0.47700000 1.00300002 1.000000 1.000000
0.70300001 0.48899999 1.00899994 1.000000 1.000000
0.41400000 0.60100001 1.00999999 1.000000 1.000000
0.46000001 0.61000001 1.00300002 1.000000 1.000000
0.41900000 0.62300003 1.01300001 1.000000 1.000000
0.47000000 0.62599999 1.00000000 1.000000 1.000000
0.50599998 0.63099998 1.00399995 1.000000 1.000000
0.38100001 0.65799999 1.00500000 1.000000 1.000000
0.47799999 0.65300000 1.00199997 1.000000 1.000000
0.36399999 0.69700003 1.01600003 1.000000 1.000000
0.40799999 0.69099998 1.00699997 1.000000 1.000000
0.35699999 0.72600001 1.00699997 1.000000 1.000000
0.41200000 0.72000003 1.01100004 1.000000 1.000000
0.50099999 0.72100002 1.00800002 1.000000 1.000000
0.36300001 0.77800000 1.00699997 1.000000 1.000000
0.40900001 0.77800000 1.00600004 1.000000 1.000000
1.00899994 0.90899998 1.00699997 1.000000 1.000000
0.99400002 0.93400002 1.01699996 1.000000 1.000000
1.00999999 0.92799997 1.01199996 1.000000 1.000000
1.08299994 0.96899998 0.99400002 1.000000 1.000000
1.05599999 0.99500000 1.01600003 1.000000 1.000000
0.96300000 1.09000003 1.00999999 1.000000 1.000000
1.08099997 1.11399996 1.00699997 1.000000 1.000000
1.09800005 1.13699996 1.00699997 1.000000 1.000000
0.75000000 1.16999996 1.00800002 1.000000 1.000000
1.03999996 1.17900002 1.00500000 1.000000 1.000000
1.06099999 1.17999995 1.00699997 1.000000 1.000000
1.10099995 1.15799999 1.00800002 1.000000 1.000000
1.05499995 1.22500002 1.00500000 1.000000 1.000000
0.87099999 1.31400001 1.00899994 1.000000 1.000000
0.88200003 1.31700003 0.99299997 1.000000 1.000000
0.81900001 1.67999995 1.01499999 1.000000 1.000000
0.70400000 0.37200001 1.01999998 1.000000 1.000000
0.70200002 0.44499999 1.02400005 1.000000 1.000000
0.50400001 0.57800001 1.04400003 1.000000 1.000000
0.46599999 0.66700000 1.03199995 1.000000 1.000000
0.55100000 0.64499998 1.02300000 1.000000 1.000000
0.48300001 0.72399998 1.02800000 1.000000 1.000000
0.56300002 0.72399998 1.03600001 1.000000 1.000000
0.62199998 0.72000003 1.04400003 1.000000 1.000000
0.68300003 0.74800003 1.04799998 1.000000 1.000000
0.70499998 0.75500000 1.04900002 1.000000 1.000000
0.79600000 0.88200003 1.04499996 1.000000 1.000000
0.78600001 0.92299998 1.04200006 1.000000 1.000000
0.98900002 0.97500002 1.04299998 1.000000 1.000000
1.04499996 0.98900002 1.02400005 1.000000 1.000000
1.05599999 1.01900005 1.03699994 1.000000 1.000000
1.02199996 1.06099999 1.04900002 1.000000 1.000000
1.02400005 1.07500005 1.04100001 1.000000 1.000000
0.75599998 1.14999998 1.03799999 1.000000 1.000000
1.04999995 1.15199995 1.02199996 1.000000 1.000000
0.76599997 1.16799998 1.03999996 1.000000 1.000000
1.04799998 1.22599995 1.03600001 1.000000 1.000000
0.83600003 1.28699994 1.03400004 1.000000 1.000000
0.86400002 1.34000003 1.02800000 1.000000 1.000000
0.69700003 0.37599999 1.05200005 1.000000 1.000000
0.65399998 0.47400001 1.05299997 1.000000 1.000000
0.75599998 0.48300001 1.04999995 1.000000 1.000000
0.76200002 0.49100000 1.05200005 1.000000 1.000000
0.45600000 0.56300002 1.05999994 1.000000 1.000000
0.47200000 0.56800002 1.06599998 1.000000 1.000000
0.41499999 0.60299999 1.06099999 1.000000 1.000000
0.52800000 0.61000001 1.06299996 1.000000 1.000000
0.41499999 0.62800002 1.06400001 1.000000 1.000000
0.47200000 0.62599999 1.06599998 1.000000 1.000000
0.50300002 0.62599999 1.06500006 1.000000 1.000000
0.56000000 0.62800002 1.07700002 1.000000 1.000000
0.35699999 0.66500002 1.07200003 1.000000 1.000000
0.37700000 0.67199999 1.05799997 1.000000 1.000000
0.40799999 0.69099998 1.05599999 1.000000 1.000000
0.50599998 0.67600000 1.07299995 1.000000 1.000000
0.55500001 0.67500001 1.07700002 1.000000 1.000000
0.44000000 0.72000003 1.05799997 1.000000 1.000000
0.65200001 0.73000002 1.05200005 1.000000 1.000000
0.71600002 0.75400001 1.05499995 1.000000 1.000000
0.71200001 0.77100003 1.05299997 1.000000 1.000000
0.80400002 0.89600003 1.06700003 1.000000 1.000000
0.80199999 0.93000001 1.06599998 1.000000 1.000000
0.79500002 0.95400000 1.06900001 1.000000 1.000000
0.99400002 0.99100000 1.06099999 1.000000 1.000000
1.00100005 0.99299997 1.07099998 1.000000 1.000000
1.02400005 1.05900002 1.07299995 1.000000 1.000000
0.94800001 1.09000003 1.06299996 1.000000 1.000000
1.02300000 1.07599998 1.06200004 1.000000 1.000000
0.95200002 1.10800004 1.06500006 1.000000 1.000000
0.75700003 1.14900005 1.07799995 1.000000 1.000000
0.90499997 1.17200005 1.07799995 1.000000 1.000000
1.02499998 1.17999995 1.07099998 1.000000 1.000000
1.06099999 1.16999996 1.05900002 1.000000 1.000000
0.83200002 1.23899996 1.05400002 1.000000 1.000000
1.04600000 1.22099996 1.06299996 1.000000 1.000000
0.81599998 1.28699994 1.07000005 1.000000 1.000000
0.85600001 1.29499996 1.05999994 1.000000 1.000000
0.82400000 1.33299994 1.07900000 1.000000 1.000000
0.63499999 0.51899999 1.10399997 1.000000 1.000000
0.63400000 0.54200000 1.09599996 1.000000 1.000000
0.59899998 0.57300001 1.08700001 1.000000 1.000000
0.62900001 0.56699997 1.09200001 1.000000 1.000000
0.59399998 0.61299998 1.10699999 1.000000 1.000000
0.44400001 0.67799997 1.10599995 1.000000 1.000000
0.70099998 0.71600002 1.09399998 1.000000 1.000000
0.79900002 0.97000003 1.08599997 1.000000 1.000000
0.52700001 0.98600000 1.09899998 1.000000 1.000000
0.79400003 1.00999999 1.10500002 1.000000 1.000000
0.93599999 1.11699998 1.09599996 1.000000 1.000000
0.93599999 1.12399995 1.10699999 1.000000 1.000000
1.00999999 1.14600003 1.09700000 1.000000 1.000000
1.01699996 1.22200000 1.10200000 1.000000 1.000000
0.78600001 1.29200006 1.09700000 1.000000 1.000000
0.88000000 1.28999996 1.10899997 1.000000 1.000000
1.23300004 1.31900001 1.09700000 1.000000 1.000000
1.24500000 1.31799996 1.10300004 1.000000 1.000000
0.80900002 1.33299994 1.10500002 1.000000 1.000000
1.29600000 1.37199998 1.09300005 1.000000 1.000000
1.31200004 1.37899995 1.09700000 1.000000 1.000000
1.31900001 1.40699995 1.10200000 1.000000 1.000000
1.33399999 1.42299998 1.10599995 1.000000 1.000000
0.65600002 1.48199999 1.10899997 1.000000 1.000000
0.70099998 1.50000000 1.10500002 1.000000 1.000000
0.68199998 1.52400005 1.10500002 1.000000 1.000000
0.71100003 1.52600002 1.10699999 1.000000 1.000000
0.51400000 0.54299998 1.13900006 1.000000 1.000000
0.48600000 0.56000000 1.13900006 1.000000 1.000000
0.50500000 0.57099998 1.12800002 1.000000 1.000000
0.48400000 0.59799999 1.12199998 1.000000 1.000000
0.39500001 0.64200002 1.13800001 1.000000 1.000000
0.47499999 0.62300003 1.11899996 1.000000 1.000000
0.50400001 0.62400001 1.12199998 1.000000 1.000000
0.56099999 0.62500000 1.12600005 1.000000 1.000000
0.41400000 0.65799999 1.13800001 1.000000 1.000000
0.36600000 0.69400001 1.12300003 1.000000 1.000000
0.50300002 0.67500001 1.11800003 1.000000 1.000000
0.68099999 0.70200002 1.12899995 1.000000 1.000000
1.31099999 0.77800000 1.13800001 1.000000 1.000000
0.51599997 0.96700001 1.13100004 1.000000 1.000000
1.01699996 1.02300000 1.12899995 1.000000 1.000000
0.89399999 1.08700001 1.13399994 1.000000 1.000000
0.99100000 1.09000003 1.12699997 1.000000 1.000000
1.00399995 1.09099996 1.11300004 1.000000 1.000000
0.92500001 1.11099994 1.13100004 1.000000 1.000000
0.76599997 1.14699996 1.11000001 1.000000 1.000000
0.80299997 1.13699996 1.11500001 1.000000 1.000000
1.00999999 1.14400005 1.12500000 1.000000 1.000000
0.90600002 1.19900000 1.13600004 1.000000 1.000000
0.99000001 1.20200002 1.12600005 1.000000 1.000000
1.01100004 1.20099998 1.11800003 1.000000 1.000000
0.98900002 1.22800004 1.12699997 1.000000 1.000000
0.83200002 1.29999995 1.11399996 1.000000 1.000000
0.78600001 1.32799995 1.13199997 1.000000 1.000000
1.23199999 1.31299996 1.12899995 1.000000 1.000000
1.25600004 1.33599997 1.13100004 1.000000 1.000000
0.72000003 1.38399994 1.12699997 1.000000 1.000000
0.77700001 1.37399995 1.13699996 1.000000 1.000000
1.28699994 1.37100005 1.12100005 1.000000 1.000000
0.67100000 1.43900001 1.13900006 1.000000 1.000000
0.72200000 1.43700004 1.13499999 1.000000 1.000000
0.76099998 1.44299996 1.13600004 1.000000 1.000000
0.63300002 1.47700000 1.12800002 1.000000 1.000000
0.77499998 1.47200000 1.13600004 1.000000 1.000000
0.47799999 0.50900000 1.16199994 1.000000 1.000000
0.52200001 0.51899999 1.16600001 1.000000 1.000000
0.48400000 0.53600001 1.15699995 1.000000 1.000000
0.50199997 0.56699997 1.15699995 1.000000 1.000000
0.59100002 0.57800001 1.16900003 1.000000 1.000000
0.43700001 0.58600003 1.16900003 1.000000 1.000000
0.41499999 0.63700002 1.15799999 1.000000 1.000000
0.56199998 0.65399998 1.15799999 1.000000 1.000000
0.38400000 0.68500000 1.15199995 1.000000 1.000000
0.41100001 0.68099999 1.15600002 1.000000 1.000000
0.56800002 0.68300003 1.16600001 1.000000 1.000000
1.27900004 0.75300002 1.16600001 1.000000 1.000000
1.28699994 0.77700001 1.15499997 1.000000 1.000000
1.28999996 0.80199999 1.14600003 1.000000 1.000000
0.81500000 0.91200000 1.16799998 1.000000 1.000000
0.51599997 0.96100003 1.15799999 1.000000 1.000000
0.51999998 0.96799999 1.15600002 1.000000 1.000000
1.01800001 1.05100000 1.15300000 1.000000 1.000000
1.01699996 1.06700003 1.16600001 1.000000 1.000000
0.98500001 1.10899997 1.15400004 1.000000 1.000000
0.95999998 1.14199996 1.14900005 1.000000 1.000000
0.98000002 1.13399994 1.15600002 1.000000 1.000000
1.00500000 1.13699996 1.15300000 1.000000 1.000000
0.93199998 1.18099999 1.16400003 1.000000 1.000000
0.76999998 1.20299995 1.16499996 1.000000 1.000000
0.84299999 1.19700003 1.14499998 1.000000 1.000000
0.87000000 1.22800004 1.16799998 1.000000 1.000000
0.96300000 1.22899997 1.15300000 1.000000 1.000000
0.81699997 1.26199996 1.16199994 1.000000 1.000000
0.81400001 1.27600002 1.16499996 1.000000 1.000000
0.77899998 1.33200002 1.15999997 1.000000 1.000000
0.80400002 1.32099998 1.15199995 1.000000 1.000000
0.95599997 1.36199999 1.16799998 1.000000 1.000000
0.71700001 1.38100004 1.16900003 1.000000 1.000000
0.77200001 1.37600005 1.15499997 1.000000 1.000000
0.95700002 1.37399995 1.16799998 1.000000 1.000000
1.00399995 1.38499999 1.16600001 1.000000 1.000000
1.05799997 1.39100003 1.16299999 1.000000 1.000000
0.69300002 1.40699995 1.16700006 1.000000 1.000000
0.87099999 1.41900003 1.16700006 1.000000 1.000000
0.88800001 1.41499996 1.16199994 1.000000 1.000000
0.68199998 1.44400001 1.15799999 1.000000 1.000000
0.71100003 1.43599999 1.15699995 1.000000 1.000000
0.76499999 1.43700004 1.15400004 1.000000 1.000000
0.80299997 1.44099998 1.16100001 1.000000 1.000000
0.77300000 1.47000003 1.15699995 1.000000 1.000000
0.80199999 1.46800005 1.15600002 1.000000 1.000000
0.64200002 1.52100003 1.15699995 1.000000 1.000000
0.50199997 0.51499999 1.17999995 1.000000 1.000000
0.56199998 0.54799998 1.17999995 1.000000 1.000000
0.47099999 0.58899999 1.19299996 1.000000 1.000000
1.25100005 0.69800001 1.19700003 1.000000 1.000000
0.56800002 0.71700001 1.18900001 1.000000 1.000000
0.62000000 0.90899998 1.19000006 1.000000 1.000000
0.60000002 0.91600001 1.19700003 1.000000 1.000000
0.62000000 0.92299998 1.18900001 1.000000 1.000000
0.76999998 1.03199995 1.19900000 1.000000 1.000000
0.75599998 1.21899998 1.18400002 1.000000 1.000000
0.92299998 1.22500002 1.17400002 1.000000 1.000000
0.71700001 1.29299998 1.18799996 1.000000 1.000000
0.76599997 1.28499997 1.19400001 1.000000 1.000000
0.86000001 1.28699994 1.17400002 1.000000 1.000000
0.71600002 1.31700003 1.18400002 1.000000 1.000000
0.93000001 1.38699996 1.18299997 1.000000 1.000000
0.90899998 1.42700005 1.19200003 1.000000 1.000000
0.98000002 1.42900002 1.16999996 1.000000 1.000000
0.62500000 1.50300002 1.19000006 1.000000 1.000000
0.44200000 0.54799998 1.21399999 1.000000 1.000000
0.48100001 0.53899997 1.21399999 1.000000 1.000000
0.44600001 0.57099998 1.21599996 1.000000 1.000000
0.47099999 0.56699997 1.21599996 1.000000 1.000000
0.55699998 0.56900001 1.20299995 1.000000 1.000000
0.50500000 0.59399998 1.22300005 1.000000 1.000000
0.53299999 0.62199998 1.21700001 1.000000 1.000000
0.78600001 0.64099997 1.22099996 1.000000 1.000000
1.20500004 0.62599999 1.21200001 1.000000 1.000000
0.80400002 0.64600003 1.22300005 1.000000 1.000000
1.23800004 0.67000002 1.21500003 1.000000 1.000000
0.75099999 0.69700003 1.20500004 1.000000 1.000000
0.56000000 0.72899997 1.20799994 1.000000 1.000000
0.74699998 0.71600002 1.21399999 1.000000 1.000000
1.25199997 0.71499997 1.20700002 1.000000 1.000000
0.73799998 0.73299998 1.22800004 1.000000 1.000000
1.25600004 0.73799998 1.20200002 1.000000 1.000000
0.56900001 0.76899999 1.22399998 1.000000 1.000000
1.25899994 0.77999997 1.20200002 1.000000 1.000000
1.25300002 0.83399999 1.22500002 1.000000 1.000000
0.54600000 0.86699998 1.22599995 1.000000 1.000000
0.27000001 0.91000003 1.22300005 1.000000 1.000000
0.60600001 0.90899998 1.22300005 1.000000 1.000000
0.80199999 0.89700001 1.20500004 1.000000 1.000000
0.27500001 0.91900003 1.22399998 1.000000 1.000000
0.51400000 0.94000000 1.21599996 1.000000 1.000000
0.61299998 0.91799998 1.21500003 1.000000 1.000000
1.23599994 0.96499997 1.20700002 1.000000 1.000000
1.24000001 0.96700001 1.20500004 1.000000 1.000000
0.76800001 1.02999997 1.20299995 1.000000 1.000000
0.80299997 1.03100002 1.20500004 1.000000 1.000000
0.77499998 1.07299995 1.20799994 1.000000 1.000000
0.81900001 1.08700001 1.22800004 1.000000 1.000000
0.76300001 1.12600005 1.22200000 1.000000 1.000000
0.81300002 1.12600005 1.22899997 1.000000 1.000000
0.98100001 1.13999999 1.22599995 1.000000 1.000000
0.72100002 1.23599994 1.22399998 1.000000 1.000000
0.76999998 1.24199998 1.22399998 1.000000 1.000000
0.79000002 1.26900005 1.21700001 1.000000 1.000000
0.58899999 1.30200005 1.21599996 1.000000 1.000000
0.72500002 1.29600000 1.21399999 1.000000 1.000000
0.58999997 1.32000005 1.21500003 1.000000 1.000000
0.71799999 1.31900001 1.20599997 1.000000 1.000000
0.61100000 1.34899998 1.22899997 1.000000 1.000000
0.93099999 1.35399997 1.21700001 1.000000 1.000000
0.68800002 1.38699996 1.20299995 1.000000 1.000000
0.72299999 1.38300002 1.21000004 1.000000 1.000000
0.76200002 1.38600004 1.22599995 1.000000 1.000000
0.80900002 1.37899995 1.21800005 1.000000 1.000000
0.93500000 1.37600005 1.21899998 1.000000 1.000000
0.68699998 1.43700004 1.22300005 1.000000 1.000000
0.71300000 1.43499994 1.21700001 1.000000 1.000000
0.76999998 1.43700004 1.21500003 1.000000 1.000000
0.86199999 1.44200003 1.21899998 1.000000 1.000000
0.90600002 1.43900001 1.22399998 1.000000 1.000000
0.62400001 1.47599995 1.22599995 1.000000 1.000000
0.64300001 1.46099997 1.22200000 1.000000 1.000000
0.77300000 1.46800005 1.21500003 1.000000 1.000000
0.80100000 1.47000003 1.21000004 1.000000 1.000000
0.95499998 1.45400000 1.22899997 1.000000 1.000000
0.63599998 1.52300000 1.20500004 1.000000 1.000000
0.87500000 1.57200003 1.22899997 1.000000 1.000000
0.81699997 0.49300000 1.25300002 1.000000 1.000000
1.10699999 0.60900003 1.24300003 1.000000 1.000000
1.10399997 0.62099999 1.24399996 1.000000 1.000000
1.19500005 0.66299999 1.25600004 1.000000 1.000000
0.90399998 0.71700001 1.25800002 1.000000 1.000000
0.90899998 0.71399999 1.25899994 1.000000 1.000000
0.56000000 0.80299997 1.25199997 1.000000 1.000000
0.69499999 0.81699997 1.23500001 1.000000 1.000000
0.69400001 0.84600002 1.25199997 1.000000 1.000000
0.70499998 0.83499998 1.23800004 1.000000 1.000000
1.23300004 0.84500003 1.25300002 1.000000 1.000000
1.24800003 0.84700000 1.23899996 1.000000 1.000000
0.54799998 0.88200003 1.25199997 1.000000 1.000000
0.58300000 0.88099998 1.25699997 1.000000 1.000000
0.59299999 0.90300000 1.25000000 1.000000 1.000000
1.05400002 0.93599999 1.24600005 1.000000 1.000000
1.05299997 0.95400000 1.25600004 1.000000 1.000000
0.74100000 1.02199996 1.25100005 1.000000 1.000000
1.22700000 1.02400005 1.24100006 1.000000 1.000000
0.74800003 1.04299998 1.25399995 1.000000 1.000000
0.77600002 1.05100000 1.25199997 1.000000 1.000000
0.66299999 1.09200001 1.25899994 1.000000 1.000000
0.74800003 1.08200002 1.25800002 1.000000 1.000000
0.69000000 1.10899997 1.24500000 1.000000 1.000000
0.74299997 1.11099994 1.25000000 1.000000 1.000000
0.65100002 1.13900006 1.25399995 1.000000 1.000000
0.68800002 1.12699997 1.24899995 1.000000 1.000000
0.71200001 1.13699996 1.24699998 1.000000 1.000000
0.96499997 1.14900005 1.25399995 1.000000 1.000000
0.72200000 1.15799999 1.25699997 1.000000 1.000000
0.75900000 1.17799997 1.24800003 1.000000 1.000000
0.82700002 1.16900003 1.24300003 1.000000 1.000000
0.85399997 1.16999996 1.24800003 1.000000 1.000000
0.71899998 1.20899999 1.24500000 1.000000 1.000000
0.81300002 1.19299996 1.25399995 1.000000 1.000000
0.81199998 1.23399997 1.23300004 1.000000 1.000000
0.86900002 1.23300004 1.25399995 1.000000 1.000000
0.91799998 1.23699999 1.25899994 1.000000 1.000000
0.80000001 1.29900002 1.25699997 1.000000 1.000000
0.83899999 1.28999996 1.24500000 1.000000 1.000000
0.86299998 1.28699994 1.24399996 1.000000 1.000000
0.91200000 1.28499997 1.25899994 1.000000 1.000000
0.96100003 1.29999995 1.24699998 1.000000 1.000000
1.01300001 1.29200006 1.25199997 1.000000 1.000000
0.76700002 1.32299995 1.23599994 1.000000 1.000000
0.80400002 1.36000001 1.24899995 1.000000 1.000000
0.98100001 1.34800005 1.24800003 1.000000 1.000000
1.00100005 1.33899999 1.24699998 1.000000 1.000000
0.56300002 1.37800002 1.25100005 1.000000 1.000000
0.58999997 1.37600005 1.25399995 1.000000 1.000000
0.83600003 1.37600005 1.25600004 1.000000 1.000000
0.89300001 1.38800001 1.25699997 1.000000 1.000000
0.96600002 1.37399995 1.24600005 1.000000 1.000000
1.23300004 1.38999999 1.24800003 1.000000 1.000000
0.93800002 1.40400004 1.25199997 1.000000 1.000000
1.25199997 1.40799999 1.25399995 1.000000 1.000000
0.80500001 1.44000006 1.25000000 1.000000 1.000000
1.25199997 1.42700005 1.25399995 1.000000 1.000000
0.57300001 1.47700000 1.25199997 1.000000 1.000000
0.59899998 1.47300005 1.24399996 1.000000 1.000000
0.91299999 1.45899999 1.25699997 1.000000 1.000000
0.84899998 1.49699998 1.25300002 1.000000 1.000000
0.77499998 1.52100003 1.24500000 1.000000 1.000000
0.85299999 1.51699996 1.25899994 1.000000 1.000000
0.91299999 1.53299999 1.25500000 1.000000 1.000000
0.89099997 1.55999994 1.24800003 1.000000 1.000000
0.89399999 0.24100000 1.28100002 1.000000 1.000000
0.88800001 0.29400000 1.28400004 1.000000 1.000000
0.87599999 0.32800001 1.28799999 1.000000 1.000000
0.68400002 0.38999999 1.28900003 1.000000 1.000000
0.70899999 0.41999999 1.28799999 1.000000 1.000000
0.69300002 0.44900000 1.28799999 1.000000 1.000000
0.81400001 0.44999999 1.28499997 1.000000 1.000000
0.85299999 0.45100001 1.27499998 1.000000 1.000000
0.77100003 0.47900000 1.28799999 1.000000 1.000000
0.86100000 0.47499999 1.28100002 1.000000 1.000000
0.91799998 0.48899999 1.27800000 1.000000 1.000000
0.63200003 0.50400001 1.28900003 1.000000 1.000000
0.65100002 0.51800001 1.28299999 1.000000 1.000000
0.74900001 0.49399999 1.28900003 1.000000 1.000000
0.94700003 0.51899999 1.27199996 1.000000 1.000000
0.63099998 0.53799999 1.28699994 1.000000 1.000000
0.72700000 0.52499998 1.28799999 1.000000 1.000000
0.78600001 0.54299998 1.28600001 1.000000 1.000000
0.80900002 0.53600001 1.27800000 1.000000 1.000000
0.86199999 0.53600001 1.27999997 1.000000 1.000000
0.71100003 0.56800002 1.27600002 1.000000 1.000000
0.82900000 0.57099998 1.28499997 1.000000 1.000000
0.67699999 0.58600003 1.28799999 1.000000 1.000000
1.11600006 0.59399998 1.27199996 1.000000 1.000000
0.93099999 0.64099997 1.26800001 1.000000 1.000000
1.24500000 0.65200001 1.26900005 1.000000 1.000000
0.73699999 0.72899997 1.27800000 1.000000 1.000000
0.89899999 0.77600002 1.27300000 1.000000 1.000000
0.90799999 0.76800001 1.26600003 1.000000 1.000000
0.54400003 0.83999997 1.27800000 1.000000 1.000000
0.56400001 0.83399999 1.27199996 1.000000 1.000000
0.62300003 0.84799999 1.28199995 1.000000 1.000000
1.28299999 0.83300000 1.28299999 1.000000 1.000000
1.23500001 0.87000000 1.27300000 1.000000 1.000000
0.80199999 0.89800000 1.27300000 1.000000 1.000000
1.25199997 0.88999999 1.28299999 1.000000 1.000000
0.48300001 0.93800002 1.27400005 1.000000 1.000000
0.53399998 0.93900001 1.26800001 1.000000 1.000000
0.56599998 0.92100000 1.27800000 1.000000 1.000000
0.54799998 0.96799999 1.27999997 1.000000 1.000000
1.04400003 0.96200001 1.27199996 1.000000 1.000000
1.04400003 0.97500002 1.28699994 1.000000 1.000000
0.50599998 1.04400003 1.28799999 1.000000 1.000000
0.66600001 1.06099999 1.27199996 1.000000 1.000000
1.22700000 1.05700004 1.26100004 1.000000 1.000000
0.63000000 1.08299994 1.27300000 1.000000 1.000000
0.76200002 1.07500005 1.26800001 1.000000 1.000000
0.80299997 1.07500005 1.26199996 1.000000 1.000000
1.18299997 1.08399999 1.28900003 1.000000 1.000000
0.62800002 1.13199997 1.27999997 1.000000 1.000000
0.77100003 1.13600004 1.28100002 1.000000 1.000000
0.86100000 1.14900005 1.27999997 1.000000 1.000000
1.17100000 1.15199995 1.28699994 1.000000 1.000000
1.22800004 1.13900006 1.27800000 1.000000 1.000000
1.26999998 1.14699996 1.28299999 1.000000 1.000000
0.74599999 1.16900003 1.27800000 1.000000 1.000000
0.86400002 1.16700006 1.27300000 1.000000 1.000000
0.91200000 1.16900003 1.28299999 1.000000 1.000000
1.20400000 1.20000005 1.28699994 1.000000 1.000000
0.62300003 1.23899996 1.28699994 1.000000 1.000000
0.71499997 1.23199999 1.25999999 1.000000 1.000000
0.84500003 1.22500002 1.27400005 1.000000 1.000000
0.62300003 1.28799999 1.27100003 1.000000 1.000000
0.69300002 1.29499996 1.26699996 1.000000 1.000000
0.70599997 1.28999996 1.26199996 1.000000 1.000000
0.80400002 1.29700005 1.26499999 1.000000 1.000000
0.86500001 1.28699994 1.27800000 1.000000 1.000000
0.99699998 1.29999995 1.25999999 1.000000 1.000000
0.54100001 1.33099997 1.28400004 1.000000 1.000000
0.55199999 1.33000004 1.28299999 1.000000 1.000000
0.74400002 1.31900001 1.26499999 1.000000 1.000000
0.81099999 1.31900001 1.27100003 1.000000 1.000000
0.96100003 1.31900001 1.28299999 1.000000 1.000000
1.01100004 1.31799996 1.27499998 1.000000 1.000000
0.61000001 1.35099995 1.26199996 1.000000 1.000000
0.76300001 1.34700000 1.26300001 1.000000 1.000000
0.86000001 1.35899997 1.28400004 1.000000 1.000000
0.93099999 1.35899997 1.26499999 1.000000 1.000000
0.53299999 1.37199998 1.27600002 1.000000 1.000000
0.71700001 1.38999999 1.25999999 1.000000 1.000000
0.78200001 1.38199997 1.26999998 1.000000 1.000000
0.97799999 1.36699998 1.26900005 1.000000 1.000000
0.66000003 1.40999997 1.26300001 1.000000 1.000000
0.65899998 1.44200003 1.26300001 1.000000 1.000000
0.71100003 1.43200004 1.27600002 1.000000 1.000000
0.77100003 1.43700004 1.27199996 1.000000 1.000000
0.80400002 1.43799996 1.27499998 1.000000 1.000000
0.86199999 1.43599999 1.27800000 1.000000 1.000000
0.60500002 1.47000003 1.26400006 1.000000 1.000000
0.65600002 1.47099996 1.26400006 1.000000 1.000000
0.85699999 1.46899998 1.27499998 1.000000 1.000000
0.78100002 1.50100005 1.27600002 1.000000 1.000000
0.78200001 1.52499998 1.27100003 1.000000 1.000000
0.84299999 1.59099996 1.27100003 1.000000 1.000000
0.86299998 1.58700001 1.27400005 1.000000 1.000000
0.90100002 0.23899999 1.29100001 1.000000 1.000000
0.91100001 0.27100000 1.29299998 1.000000 1.000000
0.66200000 0.30700001 1.31500006 1.000000 1.000000
0.66299999 0.32900000 1.31599998 1.000000 1.000000
0.83700001 0.36800000 1.30999994 1.000000 1.000000
0.66700000 0.38400000 1.30499995 1.000000 1.000000
0.70499998 0.38999999 1.31500006 1.000000 1.000000
0.86100000 0.38100001 1.30700004 1.000000 1.000000
0.74199998 0.42899999 1.30400002 1.000000 1.000000
0.76300001 0.42500001 1.29999995 1.000000 1.000000
0.81199998 0.41999999 1.30999994 1.000000 1.000000
0.85799998 0.42199999 1.30700004 1.000000 1.000000
0.68300003 0.44499999 1.30299997 1.000000 1.000000
0.75999999 0.44700000 1.30599999 1.000000 1.000000
0.36899999 0.49000001 1.31099999 1.000000 1.000000
0.62800002 0.48800001 1.30299997 1.000000 1.000000
0.65499997 0.48500001 1.30999994 1.000000 1.000000
0.71499997 0.47700000 1.30400002 1.000000 1.000000
0.77300000 0.47900000 1.30599999 1.000000 1.000000
0.80199999 0.47900000 1.30400002 1.000000 1.000000
0.86400002 0.47600001 1.30200005 1.000000 1.000000
0.93199998 0.48899999 1.30299997 1.000000 1.000000
0.52800000 0.52200001 1.31799996 1.000000 1.000000
0.60600001 0.51800001 1.31500006 1.000000 1.000000
0.59700000 0.53600001 1.31500006 1.000000 1.000000
0.65399998 0.53799999 1.30599999 1.000000 1.000000
0.71200001 0.53700000 1.30400002 1.000000 1.000000
0.77499998 0.54000002 1.30599999 1.000000 1.000000
0.80199999 0.53600001 1.30499995 1.000000 1.000000
0.65600002 0.56699997 1.30599999 1.000000 1.000000
0.77300000 0.56800002 1.30599999 1.000000 1.000000
0.82800001 0.57400000 1.30200005 1.000000 1.000000
0.72299999 0.58899999 1.30999994 1.000000 1.000000
0.71899998 0.74599999 1.30400002 1.000000 1.000000
0.87500000 0.81000000 1.30200005 1.000000 1.000000
0.88099998 0.81800002 1.30499995 1.000000 1.000000
0.59600002 0.84299999 1.30200005 1.000000 1.000000
0.55900002 0.87699997 1.30200005 1.000000 1.000000
1.27800000 0.87099999 1.30200005 1.000000 1.000000
1.07599998 0.90700001 1.31900001 1.000000 1.000000
0.53899997 0.93099999 1.30499995 1.000000 1.000000
0.55900002 0.92299998 1.30200005 1.000000 1.000000
0.81099999 0.91700000 1.30499995 1.000000 1.000000
1.05499995 0.94099998 1.30700004 1.000000 1.000000
1.28499997 0.92699999 1.30400002 1.000000 1.000000
1.31200004 0.93000001 1.31500006 1.000000 1.000000
0.49900001 0.96600002 1.30999994 1.000000 1.000000
1.02499998 0.96600002 1.30299997 1.000000 1.000000
1.34399998 0.96700001 1.30900002 1.000000 1.000000
0.50199997 0.98000002 1.30700004 1.000000 1.000000
1.02300000 0.97600001 1.30700004 1.000000 1.000000
1.06900001 0.97399998 1.31200004 1.000000 1.000000
1.35699999 0.97899997 1.30499995 1.000000 1.000000
1.36899996 0.98900002 1.29700005 1.000000 1.000000
1.17600000 1.05999994 1.31900001 1.000000 1.000000
0.74299997 1.09200001 1.31099999 1.000000 1.000000
1.13399994 1.08899999 1.30400002 1.000000 1.000000
1.16900003 1.08500004 1.30799997 1.000000 1.000000
0.65399998 1.10699999 1.30200005 1.000000 1.000000
1.21399999 1.12100005 1.30499995 1.000000 1.000000
0.68400002 1.13499999 1.30499995 1.000000 1.000000
0.70899999 1.13699996 1.30700004 1.000000 1.000000
0.89499998 1.13999999 1.30599999 1.000000 1.000000
0.91500002 1.13999999 1.30599999 1.000000 1.000000
1.15799999 1.14199996 1.30499995 1.000000 1.000000
0.74299997 1.16999996 1.30599999 1.000000 1.000000
1.11699998 1.16999996 1.31700003 1.000000 1.000000
1.19500005 1.16700006 1.30200005 1.000000 1.000000
1.22099996 1.16700006 1.30499995 1.000000 1.000000
0.76300001 1.19799995 1.29700005 1.000000 1.000000
0.57400000 1.23899996 1.31500006 1.000000 1.000000
0.89300001 1.22599995 1.30499995 1.000000 1.000000
1.14600003 1.22700000 1.31799996 1.000000 1.000000
1.16199994 1.22599995 1.31299996 1.000000 1.000000
0.63700002 1.26900005 1.30799997 1.000000 1.000000
0.79400003 1.26600003 1.31400001 1.000000 1.000000
1.04299998 1.26999998 1.31500006 1.000000 1.000000
0.80299997 1.28499997 1.31299996 1.000000 1.000000
0.89200002 1.28900003 1.30200005 1.000000 1.000000
0.91100001 1.29799998 1.30700004 1.000000 1.000000
0.96499997 1.28100002 1.31599998 1.000000 1.000000
0.83399999 1.32000005 1.30299997 1.000000 1.000000
0.86100000 1.31700003 1.30400002 1.000000 1.000000
0.98100001 1.32400000 1.30299997 1.000000 1.000000
1.01300001 1.32000005 1.30400002 1.000000 1.000000
0.82999998 1.38000000 1.30599999 1.000000 1.000000
0.90200001 1.38900006 1.30700004 1.000000 1.000000
1.26300001 1.38900006 1.30299997 1.000000 1.000000
0.77300000 1.41999996 1.31500006 1.000000 1.000000
0.80299997 1.43700004 1.30700004 1.000000 1.000000
1.25000000 1.42999995 1.28999996 1.000000 1.000000
0.59500003 1.47200000 1.31099999 1.000000 1.000000
0.74100000 1.46899998 1.31400001 1.000000 1.000000
0.77200001 1.46700001 1.30599999 1.000000 1.000000
0.80100000 1.46700001 1.31400001 1.000000 1.000000
0.59399998 1.51900005 1.31599998 1.000000 1.000000
0.81300002 1.55200005 1.31900001 1.000000 1.000000
0.85200000 1.55700004 1.30999994 1.000000 1.000000
0.81099999 1.58500004 1.31299996 1.000000 1.000000
0.85100001 1.62199998 1.31200004 1.000000 1.000000
0.84399998 1.63800001 1.31400001 1.000000 1.000000
0.83999997 0.32800001 1.32400000 1.000000 1.000000
0.85799998 0.33300000 1.33299994 1.000000 1.000000
0.92500001 0.37000000 1.34899998 1.000000 1.000000
0.90499997 0.42100000 1.32700002 1.000000 1.000000
0.59500003 0.45300001 1.33399999 1.000000 1.000000
0.61299998 0.45600000 1.34500003 1.000000 1.000000
0.60000002 0.47400001 1.33299994 1.000000 1.000000
0.53299999 0.51599997 1.32000005 1.000000 1.000000
0.39399999 0.54799998 1.33500004 1.000000 1.000000
0.62099999 0.56699997 1.33000004 1.000000 1.000000
0.54600000 0.58499998 1.33099997 1.000000 1.000000
0.55500001 0.58300000 1.34399998 1.000000 1.000000
0.65300000 0.62699997 1.33200002 1.000000 1.000000
0.71600002 0.63499999 1.34599996 1.000000 1.000000
0.76200002 0.61799997 1.33399999 1.000000 1.000000
0.71499997 0.77700001 1.33800006 1.000000 1.000000
0.51899999 0.79799998 1.34800005 1.000000 1.000000
0.52899998 0.84299999 1.34200001 1.000000 1.000000
0.84500003 0.84200001 1.33299994 1.000000 1.000000
0.84500003 0.87099999 1.34300005 1.000000 1.000000
0.90499997 0.87199998 1.34000003 1.000000 1.000000
1.10200000 0.87800002 1.33500004 1.000000 1.000000
0.85200000 0.88400000 1.34300005 1.000000 1.000000
0.47799999 0.97899997 1.33399999 1.000000 1.000000
1.26300001 0.99299997 1.34500003 1.000000 1.000000
0.50400001 1.01699996 1.33599997 1.000000 1.000000
1.23300004 1.01900005 1.34899998 1.000000 1.000000
1.25699997 1.02100003 1.34800005 1.000000 1.000000
1.13000000 1.05999994 1.32599998 1.000000 1.000000
1.09599996 1.10899997 1.33800006 1.000000 1.000000
1.12899995 1.14499998 1.33899999 1.000000 1.000000
0.63099998 1.20799994 1.33399999 1.000000 1.000000
1.08599997 1.20599997 1.32799995 1.000000 1.000000
0.62699997 1.22899997 1.34099996 1.000000 1.000000
1.08000004 1.23099995 1.33800006 1.000000 1.000000
1.29200006 1.23899996 1.34500003 1.000000 1.000000
0.67100000 1.25000000 1.33899999 1.000000 1.000000
1.30100000 1.25500000 1.34300005 1.000000 1.000000
0.57700002 1.28499997 1.33700001 1.000000 1.000000
0.66200000 1.27699995 1.34700000 1.000000 1.000000
1.06599998 1.28199995 1.33800006 1.000000 1.000000
0.44600001 1.35899997 1.34800005 1.000000 1.000000
0.92600000 1.34700000 1.33399999 1.000000 1.000000
0.44700000 1.38000000 1.34300005 1.000000 1.000000
0.46500000 1.39999998 1.34200001 1.000000 1.000000
0.74299997 1.41299999 1.33800006 1.000000 1.000000
0.89800000 1.39499998 1.33599997 1.000000 1.000000
0.74699998 1.43299997 1.33399999 1.000000 1.000000
1.01499999 1.44200003 1.34200001 1.000000 1.000000
0.60900003 1.49699998 1.32000005 1.000000 1.000000
0.78200001 1.51699996 1.34599996 1.000000 1.000000
0.86000001 1.58800006 1.33599997 1.000000 1.000000
0.98600000 0.23899999 1.35200000 1.000000 1.000000
0.69499999 0.27900001 1.35399997 1.000000 1.000000
0.70200002 0.27800000 1.36300004 1.000000 1.000000
0.86900002 0.29600000 1.37399995 1.000000 1.000000
0.76599997 0.32300001 1.37800002 1.000000 1.000000
0.86600000 0.32499999 1.35899997 1.000000 1.000000
0.93099999 0.37099999 1.35300004 1.000000 1.000000
0.65600002 0.38900000 1.35599995 1.000000 1.000000
0.81199998 0.39899999 1.35300004 1.000000 1.000000
0.83200002 0.41800001 1.35300004 1.000000 1.000000
0.60500002 0.45699999 1.36600006 1.000000 1.000000
0.60299999 0.47799999 1.36600006 1.000000 1.000000
0.57599998 0.52200001 1.36500001 1.000000 1.000000
0.59899998 0.51099998 1.36699998 1.000000 1.000000
0.65399998 0.50500000 1.35200000 1.000000 1.000000
0.61799997 0.53700000 1.37100005 1.000000 1.000000
0.65600002 0.54000002 1.35599995 1.000000 1.000000
0.76599997 0.54600000 1.36099994 1.000000 1.000000
0.39600000 0.57800001 1.35599995 1.000000 1.000000
0.60399997 0.56699997 1.36500001 1.000000 1.000000
0.40099999 0.58700001 1.35899997 1.000000 1.000000
0.82200003 0.58600003 1.35300004 1.000000 1.000000
0.65300000 0.62599999 1.36300004 1.000000 1.000000
0.89899999 0.63000000 1.36699998 1.000000 1.000000
0.90799999 0.63999999 1.37100005 1.000000 1.000000
0.71200001 0.65899998 1.35599995 1.000000 1.000000
0.66200000 0.68500000 1.37800002 1.000000 1.000000
0.70200002 0.68699998 1.36500001 1.000000 1.000000
0.68099999 0.75900000 1.37699997 1.000000 1.000000
0.52700001 0.78700000 1.36899996 1.000000 1.000000
0.68000001 0.77800000 1.37600005 1.000000 1.000000
0.70999998 0.78899997 1.36300004 1.000000 1.000000
0.53600001 0.83300000 1.35300004 1.000000 1.000000
0.59500003 0.83899999 1.36500001 1.000000 1.000000
0.81500000 0.90899998 1.35699999 1.000000 1.000000
0.90100002 0.89999998 1.36399996 1.000000 1.000000
1.15799999 0.90700001 1.37600005 1.000000 1.000000
0.48600000 0.93300003 1.37000000 1.000000 1.000000
0.78299999 0.93500000 1.37800002 1.000000 1.000000
0.80500001 0.92600000 1.36899996 1.000000 1.000000
0.89899999 0.91399997 1.37800002 1.000000 1.000000
1.16100001 0.92000002 1.37800002 1.000000 1.000000
1.31500006 0.93199998 1.37199998 1.000000 1.000000
0.52800000 0.96799999 1.36500001 1.000000 1.000000
1.28499997 0.99000001 1.35300004 1.000000 1.000000
1.30900002 0.97899997 1.35699999 1.000000 1.000000
1.36500001 1.00000000 1.35200000 1.000000 1.000000
0.50099999 1.01699996 1.35200000 1.000000 1.000000
0.91200000 1.01900005 1.36500001 1.000000 1.000000
1.25699997 1.02100003 1.35200000 1.000000 1.000000
1.34899998 1.01800001 1.36500001 1.000000 1.000000
1.37100005 1.02400005 1.36399996 1.000000 1.000000
0.27000001 1.05999994 1.36899996 1.000000 1.000000
0.49800000 1.04799998 1.35899997 1.000000 1.000000
1.02300000 1.05900002 1.37699997 1.000000 1.000000
1.06400001 1.06099999 1.35099995 1.000000 1.000000
1.14699996 1.05799997 1.36600006 1.000000 1.000000
1.15400004 1.06099999 1.36099994 1.000000 1.000000
1.22700000 1.05700004 1.35300004 1.000000 1.000000
0.27100000 1.07400000 1.37600005 1.000000 1.000000
0.48600000 1.07400000 1.37899995 1.000000 1.000000
0.90600002 1.08200002 1.36899996 1.000000 1.000000
1.06900001 1.08000004 1.37100005 1.000000 1.000000
1.16199994 1.07599998 1.36300004 1.000000 1.000000
1.22099996 1.07599998 1.35599995 1.000000 1.000000
1.36099994 1.07299995 1.36500001 1.000000 1.000000
0.71899998 1.11800003 1.36600006 1.000000 1.000000
0.89899999 1.10800004 1.36000001 1.000000 1.000000
0.77499998 1.14199996 1.37699997 1.000000 1.000000
0.90200001 1.12300003 1.35699999 1.000000 1.000000
1.10399997 1.12800002 1.35200000 1.000000 1.000000
1.17100000 1.13999999 1.36500001 1.000000 1.000000
1.07500005 1.17700005 1.37100005 1.000000 1.000000
1.16299999 1.16799998 1.36399996 1.000000 1.000000
0.62199998 1.20299995 1.36300004 1.000000 1.000000
0.65700001 1.20000005 1.37800002 1.000000 1.000000
1.04600000 1.20899999 1.37600005 1.000000 1.000000
1.11600006 1.20799994 1.35200000 1.000000 1.000000
1.26199996 1.20200002 1.37500000 1.000000 1.000000
0.56999999 1.22599995 1.36600006 1.000000 1.000000
0.62500000 1.22700000 1.36300004 1.000000 1.000000
0.68199998 1.23500001 1.37199998 1.000000 1.000000
1.04400003 1.21899998 1.36500001 1.000000 1.000000
1.05900002 1.22800004 1.37199998 1.000000 1.000000
1.13100004 1.22500002 1.36000001 1.000000 1.000000
1.28199995 1.22599995 1.35699999 1.000000 1.000000
0.65100002 1.27699995 1.36000001 1.000000 1.000000
0.39199999 1.32900000 1.37699997 1.000000 1.000000
0.40099999 1.33000004 1.37899995 1.000000 1.000000
0.54100001 1.32799995 1.37300003 1.000000 1.000000
0.83600003 1.32900000 1.35200000 1.000000 1.000000
0.47200000 1.35200000 1.36899996 1.000000 1.000000
1.00899994 1.34500003 1.35399997 1.000000 1.000000
0.47700000 1.37100005 1.36600006 1.000000 1.000000
0.51999998 1.36699998 1.37600005 1.000000 1.000000
0.83399999 1.37600005 1.36600006 1.000000 1.000000
0.91000003 1.38900006 1.35300004 1.000000 1.000000
0.75599998 1.41100001 1.35699999 1.000000 1.000000
0.76899999 1.41799998 1.35699999 1.000000 1.000000
0.89800000 1.40699995 1.36899996 1.000000 1.000000
1.00800002 1.41799998 1.36600006 1.000000 1.000000
0.75000000 1.43400002 1.35399997 1.000000 1.000000
0.90100002 1.44000006 1.37399995 1.000000 1.000000
0.59299999 1.47899997 1.37399995 1.000000 1.000000
0.99599999 1.45700002 1.36000001 1.000000 1.000000
1.01800001 1.47099996 1.36899996 1.000000 1.000000
0.61100000 1.50999999 1.36600006 1.000000 1.000000
0.77499998 1.50000000 1.36399996 1.000000 1.000000
0.59500003 1.52199996 1.36800003 1.000000 1.000000
0.85799998 1.57099998 1.35800004 1.000000 1.000000
0.84500003 1.58800006 1.37300003 1.000000 1.000000
0.81099999 0.02900000 1.39699996 1.000000 1.000000
0.83200002 0.05700000 1.40300000 1.000000 1.000000
0.82900000 0.08100000 1.39999998 1.000000 1.000000
0.95599997 0.12800001 1.40900004 1.000000 1.000000
0.96399999 0.15800001 1.38199997 1.000000 1.000000
0.89800000 0.19000000 1.38999999 1.000000 1.000000
0.90899998 0.19100000 1.39699996 1.000000 1.000000
0.96700001 0.16900000 1.39100003 1.000000 1.000000
1.02199996 0.17500000 1.40300000 1.000000 1.000000
0.78700000 0.20000000 1.40900004 1.000000 1.000000
0.99100000 0.21500000 1.40600002 1.000000 1.000000
0.99800003 0.22100000 1.40799999 1.000000 1.000000
1.05400002 0.19300000 1.40900004 1.000000 1.000000
0.89300001 0.23700000 1.39100003 1.000000 1.000000
1.00300002 0.23700000 1.40900004 1.000000 1.000000
0.75700003 0.30199999 1.39499998 1.000000 1.000000
0.74699998 0.33000001 1.39499998 1.000000 1.000000
0.79400003 0.36500001 1.40199995 1.000000 1.000000
0.71499997 0.39399999 1.40499997 1.000000 1.000000
0.77200001 0.38699999 1.40400004 1.000000 1.000000
0.79699999 0.38499999 1.39699996 1.000000 1.000000
0.39100000 0.47900000 1.38199997 1.000000 1.000000
0.36600000 0.53700000 1.40199995 1.000000 1.000000
0.54299998 0.54299998 1.39300001 1.000000 1.000000
0.36399999 0.55500001 1.40100002 1.000000 1.000000
0.65899998 0.57999998 1.38100004 1.000000 1.000000
0.90200001 0.57900000 1.40600002 1.000000 1.000000
0.53500003 0.59399998 1.40699995 1.000000 1.000000
0.56300002 0.58499998 1.40799999 1.000000 1.000000
0.59700000 0.60100001 1.39800000 1.000000 1.000000
0.89999998 0.59700000 1.39400005 1.000000 1.000000
0.38400000 0.61699998 1.38999999 1.000000 1.000000
0.59899998 0.62099999 1.40499997 1.000000 1.000000
0.61799997 0.62400001 1.39499998 1.000000 1.000000
0.66500002 0.65399998 1.40199995 1.000000 1.000000
0.62699997 0.76099998 1.38499999 1.000000 1.000000
0.62800002 0.77800000 1.39100003 1.000000 1.000000
0.55699998 0.81199998 1.39400005 1.000000 1.000000
0.63000000 0.80699998 1.40499997 1.000000 1.000000
0.62300003 0.83800000 1.40699995 1.000000 1.000000
0.69199997 0.82400000 1.38499999 1.000000 1.000000
0.45300001 0.89800000 1.40499997 1.000000 1.000000
0.50500000 0.91000003 1.39199996 1.000000 1.000000
0.51899999 0.91000003 1.40499997 1.000000 1.000000
0.57200003 0.90499997 1.40100002 1.000000 1.000000
0.60799998 0.90799999 1.40900004 1.000000 1.000000
0.45300001 0.91700000 1.40600002 1.000000 1.000000
0.50700003 0.92500001 1.38999999 1.000000 1.000000
0.53100002 0.92600000 1.40600002 1.000000 1.000000
0.56199998 0.92900002 1.40699995 1.000000 1.000000
0.89200002 0.92500001 1.39999998 1.000000 1.000000
0.60200000 0.95899999 1.40699995 1.000000 1.000000
0.65700001 0.96600002 1.40199995 1.000000 1.000000
0.74400002 0.96499997 1.40499997 1.000000 1.000000
1.14699996 0.97100002 1.39699996 1.000000 1.000000
0.53399998 0.98699999 1.40699995 1.000000 1.000000
0.55599999 0.98400003 1.40400004 1.000000 1.000000
0.60399997 0.97700000 1.40400004 1.000000 1.000000
0.65399998 0.98500001 1.40600002 1.000000 1.000000
0.70099998 0.98799998 1.40799999 1.000000 1.000000
0.77600002 0.97700000 1.40300000 1.000000 1.000000
0.82800001 0.98299998 1.40699995 1.000000 1.000000
0.21200000 1.02199996 1.40600002 1.000000 1.000000
0.68599999 1.00600004 1.40100002 1.000000 1.000000
0.93199998 1.01999998 1.40300000 1.000000 1.000000
0.94000000 1.01499999 1.40900004 1.000000 1.000000
0.48199999 1.06200004 1.40900004 1.000000 1.000000
0.49399999 1.08299994 1.40199995 1.000000 1.000000
0.76800001 1.08800006 1.40900004 1.000000 1.000000
1.02300000 1.07099998 1.38300002 1.000000 1.000000
0.51899999 1.11399996 1.40499997 1.000000 1.000000
0.71700001 1.10899997 1.38900006 1.000000 1.000000
0.76899999 1.10899997 1.40100002 1.000000 1.000000
1.04700005 1.10599995 1.40400004 1.000000 1.000000
1.34399998 1.09700000 1.38600004 1.000000 1.000000
0.48699999 1.12500000 1.40199995 1.000000 1.000000
0.49900001 1.12500000 1.39900005 1.000000 1.000000
0.82499999 1.13900006 1.40199995 1.000000 1.000000
1.05700004 1.12300003 1.40699995 1.000000 1.000000
0.45100001 1.17400002 1.40300000 1.000000 1.000000
0.47499999 1.16900003 1.40100002 1.000000 1.000000
0.80100000 1.16100001 1.39499998 1.000000 1.000000
1.25399995 1.17900002 1.40900004 1.000000 1.000000
1.43599999 1.16799998 1.40300000 1.000000 1.000000
0.44000000 1.20899999 1.40799999 1.000000 1.000000
0.56099999 1.21200001 1.38699996 1.000000 1.000000
0.44299999 1.22800004 1.40799999 1.000000 1.000000
0.47000000 1.22300005 1.40799999 1.000000 1.000000
0.54400003 1.22700000 1.39900005 1.000000 1.000000
0.38200000 1.25999999 1.40799999 1.000000 1.000000
0.41800001 1.26300001 1.39800000 1.000000 1.000000
0.50099999 1.25999999 1.40600002 1.000000 1.000000
1.01300001 1.25399995 1.40300000 1.000000 1.000000
0.38699999 1.28600001 1.39600003 1.000000 1.000000
0.41000000 1.28699994 1.39600003 1.000000 1.000000
0.44299999 1.27600002 1.40499997 1.000000 1.000000
0.48600000 1.29200006 1.40499997 1.000000 1.000000
0.56800002 1.27600002 1.38199997 1.000000 1.000000
0.64399999 1.27400005 1.38600004 1.000000 1.000000
0.49599999 1.31599998 1.39900005 1.000000 1.000000
0.81800002 1.33000004 1.40799999 1.000000 1.000000
0.55699998 1.34200001 1.38300002 1.000000 1.000000
0.86400002 1.35000002 1.39699996 1.000000 1.000000
0.91000003 1.35800004 1.40100002 1.000000 1.000000
0.81500000 1.37500000 1.40199995 1.000000 1.000000
0.96300000 1.38499999 1.39600003 1.000000 1.000000
0.97899997 1.40100002 1.40699995 1.000000 1.000000
0.57300001 1.53799999 1.40499997 1.000000 1.000000
0.61400002 1.52600002 1.38199997 1.000000 1.000000
0.80400002 0.07600000 1.43700004 1.000000 1.000000
0.97100002 0.10200000 1.43700004 1.000000 1.000000
0.84600002 0.12600000 1.42400002 1.000000 1.000000
0.85299999 0.13100000 1.43200004 1.000000 1.000000
0.93300003 0.13000000 1.42600000 1.000000 1.000000
0.92799997 0.17800000 1.42200005 1.000000 1.000000
0.83600003 0.20800000 1.42700005 1.000000 1.000000
0.85399997 0.19900000 1.43099999 1.000000 1.000000
0.36399999 0.25099999 1.43200004 1.000000 1.000000
0.41200000 0.24500000 1.43900001 1.000000 1.000000
0.79900002 0.22600000 1.43299997 1.000000 1.000000
0.82999998 0.23000000 1.42999995 1.000000 1.000000
0.87400001 0.25900000 1.41900003 1.000000 1.000000
0.74800003 0.33500001 1.41700006 1.000000 1.000000
0.80100000 0.38699999 1.42600000 1.000000 1.000000
0.55699998 0.55000001 1.43799996 1.000000 1.000000
0.63499999 0.55400002 1.43799996 1.000000 1.000000
0.63900000 0.57099998 1.42999995 1.000000 1.000000
0.89899999 0.57200003 1.41400003 1.000000 1.000000
0.51599997 0.62599999 1.41900003 1.000000 1.000000
0.61699998 0.62699997 1.42600000 1.000000 1.000000
0.28700000 0.65799999 1.43799996 1.000000 1.000000
0.27100000 0.68500000 1.43700004 1.000000 1.000000
0.63400000 0.69700003 1.42100000 1.000000 1.000000
0.63200003 0.71700001 1.43200004 1.000000 1.000000
0.65200001 0.77999997 1.42499995 1.000000 1.000000
0.80199999 0.78600001 1.41199994 1.000000 1.000000
0.59700000 0.84799999 1.41600001 1.000000 1.000000
0.67799997 0.82700002 1.43099999 1.000000 1.000000
0.70700002 0.84500003 1.43900001 1.000000 1.000000
0.80400002 0.83300000 1.43599999 1.000000 1.000000
0.59700000 0.87000000 1.41600001 1.000000 1.000000
0.92000002 0.88000000 1.41999996 1.000000 1.000000
0.67299998 0.90899998 1.42499995 1.000000 1.000000
0.88200003 0.91000003 1.41400003 1.000000 1.000000
0.14399999 0.94000000 1.43200004 1.000000 1.000000
0.89099997 0.92900002 1.41799998 1.000000 1.000000
0.93699998 0.93699998 1.43799996 1.000000 1.000000
0.18200000 0.99699998 1.43299997 1.000000 1.000000
0.50599998 1.01999998 1.42400002 1.000000 1.000000
0.57900000 1.02400005 1.43499994 1.000000 1.000000
0.62400001 1.01900005 1.43499994 1.000000 1.000000
0.65200001 1.01699996 1.42499995 1.000000 1.000000
1.32500005 1.01999998 1.43400002 1.000000 1.000000
1.05400002 1.05299997 1.42600000 1.000000 1.000000
0.19499999 1.07799995 1.43499994 1.000000 1.000000
0.57599998 1.07400000 1.43700004 1.000000 1.000000
0.75000000 1.07900000 1.42499995 1.000000 1.000000
1.35500002 1.10699999 1.43499994 1.000000 1.000000
1.37000000 1.11800003 1.43599999 1.000000 1.000000
0.74500000 1.13399994 1.41999996 1.000000 1.000000
0.77200001 1.13699996 1.42100000 1.000000 1.000000
1.02499998 1.15100002 1.41700006 1.000000 1.000000
1.41900003 1.15199995 1.43299997 1.000000 1.000000
1.03400004 1.16700006 1.42200005 1.000000 1.000000
1.09399998 1.17700005 1.41700006 1.000000 1.000000
0.64899999 1.22800004 1.40999997 1.000000 1.000000
1.05299997 1.23099995 1.42499995 1.000000 1.000000
0.96700001 1.26999998 1.42100000 1.000000 1.000000
1.36899996 1.27199996 1.43400002 1.000000 1.000000
0.36300001 1.29200006 1.42200005 1.000000 1.000000
0.50400001 1.28600001 1.42200005 1.000000 1.000000
0.37500000 1.31799996 1.42499995 1.000000 1.000000
0.41299999 1.31799996 1.42499995 1.000000 1.000000
