0.30000001 0.62000000 8.05000019 1.000000 1.000000
0.30000001 0.66000003 8.06999969 1.000000 1.000000
0.30000001 0.72000003 8.06999969 1.000000 1.000000
0.30000001 0.76999998 8.10999966 1.000000 1.000000
0.30000001 0.94000000 8.13000011 1.000000 1.000000
0.30000001 2.51999998 9.51000023 1.000000 1.000000
0.30000001 0.98000002 10.15999985 1.000000 1.000000
0.30000001 0.73000002 10.22000027 1.000000 1.000000
0.30000001 0.55000001 10.31999969 1.000000 1.000000
0.30000001 0.69000000 10.32999992 1.000000 1.000000
0.31000000 0.60000002 7.98000002 1.000000 1.000000
0.31000000 0.52999997 7.98000002 1.000000 1.000000
0.31000000 0.43000001 8.06000042 1.000000 1.000000
0.31999999 0.51999998 8.00000000 1.000000 1.000000
0.31999999 0.77999997 10.23999977 1.000000 1.000000
0.31999999 1.02999997 10.39000034 1.000000 1.000000
0.33000001 0.62000000 7.96000004 1.000000 1.000000
0.33000001 2.26999998 10.68000031 1.000000 1.000000
0.33000001 2.09999990 10.68999958 1.000000 1.000000
0.34000000 0.68000001 8.09000015 1.000000 1.000000
0.34000000 1.02999997 10.18999958 1.000000 1.000000
0.34000000 0.63000000 10.23999977 1.000000 1.000000
0.34000000 0.75000000 10.23999977 1.000000 1.000000
0.34999999 1.09000003 5.69999981 1.000000 1.000000
0.34999999 0.69000000 7.96999979 1.000000 1.000000
0.34999999 0.79000002 10.19999981 1.000000 1.000000
0.34999999 0.63999999 10.23999977 1.000000 1.000000
0.34999999 0.56999999 10.26000023 1.000000 1.000000
0.34999999 0.69000000 10.26000023 1.000000 1.000000
0.36000001 0.64999998 7.94000006 1.000000 1.000000
0.36000001 0.73000002 8.02000046 1.000000 1.000000
0.36000001 0.70999998 8.28999996 1.000000 1.000000
0.36000001 0.69999999 10.27999973 1.000000 1.000000
0.37000000 0.69999999 7.92999983 1.000000 1.000000
0.37000000 1.05999994 10.23999977 1.000000 1.000000
0.38000000 0.91000003 5.67999983 1.000000 1.000000
0.38000000 0.74000001 7.92999983 1.000000 1.000000
0.38000000 0.70999998 8.09000015 1.000000 1.000000
0.38000000 0.76999998 8.10999966 1.000000 1.000000
0.38000000 0.73000002 10.71000004 1.000000 1.000000
0.38000000 2.21000004 10.77999973 1.000000 1.000000
0.38999999 1.04999995 5.67999983 1.000000 1.000000
0.38999999 1.03999996 5.71000004 1.000000 1.000000
0.38999999 0.75000000 8.19999981 1.000000 1.000000
0.38999999 0.81000000 10.68000031 1.000000 1.000000
0.38999999 2.20000005 10.73999977 1.000000 1.000000
0.40000001 1.72000003 0.10000000 1.000000 1.000000
0.40000001 1.08000004 5.73999977 1.000000 1.000000
0.40000001 0.88000000 8.22000027 1.000000 1.000000
0.41000000 0.79000002 7.88000011 1.000000 1.000000
0.41000000 0.76999998 8.32999992 1.000000 1.000000
0.41999999 1.66999996 0.06000000 1.000000 1.000000
0.41999999 1.61000001 0.69999999 1.000000 1.000000
0.41999999 2.36999989 9.92000008 1.000000 1.000000
0.43000001 1.47000003 1.37000000 1.000000 1.000000
0.43000001 1.47000003 1.40999997 1.000000 1.000000
0.43000001 1.00000000 5.73000002 1.000000 1.000000
0.43000001 2.11999989 10.72999954 1.000000 1.000000
0.44000000 1.48000002 1.41999996 1.000000 1.000000
0.44000000 0.86000001 7.86000013 1.000000 1.000000
0.44000000 2.18000007 10.81000042 1.000000 1.000000
0.44999999 1.47000003 1.15999997 1.000000 1.000000
0.44999999 1.45000005 1.22000003 1.000000 1.000000
0.44999999 1.46000004 1.22000003 1.000000 1.000000
0.46000001 1.58000004 1.08000004 1.000000 1.000000
0.46000001 1.13999999 5.71000004 1.000000 1.000000
0.47000000 1.45000005 0.94999999 1.000000 1.000000
0.47000000 1.44000006 0.99000001 1.000000 1.000000
0.47000000 1.45000005 1.00999999 1.000000 1.000000
0.47000000 1.46000004 1.79999995 1.000000 1.000000
0.47000000 1.42999995 2.01999998 1.000000 1.000000
0.47000000 1.12000000 5.71999979 1.000000 1.000000
0.47000000 1.13000000 5.73999977 1.000000 1.000000
0.47000000 1.00999999 5.75000000 1.000000 1.000000
0.47000000 2.18000007 10.52999973 1.000000 1.000000
0.47000000 0.75000000 10.56000042 1.000000 1.000000
0.47999999 2.29999995 9.40999985 1.000000 1.000000
0.49000001 1.88999999 0.00000000 1.000000 1.000000
0.49000001 1.45000005 0.68000001 1.000000 1.000000
0.49000001 1.44000006 0.74000001 1.000000 1.000000
0.49000001 1.45000005 0.77999997 1.000000 1.000000
0.49000001 1.45000005 1.58000004 1.000000 1.000000
0.49000001 1.41999996 1.82000005 1.000000 1.000000
0.49000001 0.81999999 7.90000010 1.000000 1.000000
0.50000000 1.69000006 0.00000000 1.000000 1.000000
0.50000000 1.05999994 5.76999998 1.000000 1.000000
0.50000000 0.91000003 7.84000015 1.000000 1.000000
0.50999999 1.83000004 0.07000000 1.000000 1.000000
0.50999999 1.44000006 1.36000001 1.000000 1.000000
0.50999999 1.42999995 1.57000005 1.000000 1.000000
0.50999999 0.94999999 5.53000021 1.000000 1.000000
0.50999999 1.00000000 7.69999981 1.000000 1.000000
0.50999999 2.29999995 9.98999977 1.000000 1.000000
0.50999999 1.87000000 10.65999985 1.000000 1.000000
0.51999998 1.50999999 0.44000000 1.000000 1.000000
0.51999998 1.55999994 1.01999998 1.000000 1.000000
0.51999998 0.83999997 5.67999983 1.000000 1.000000
0.51999998 0.85000002 5.69999981 1.000000 1.000000
0.51999998 1.04999995 7.75000000 1.000000 1.000000
0.51999998 0.89999998 8.27999973 1.000000 1.000000
0.51999998 2.21000004 10.02000046 1.000000 1.000000
0.51999998 2.45000005 10.10999966 1.000000 1.000000
0.52999997 1.55999994 0.25999999 1.000000 1.000000
0.52999997 1.54999995 0.31999999 1.000000 1.000000
0.52999997 1.46000004 1.08000004 1.000000 1.000000
0.52999997 1.42999995 1.29999995 1.000000 1.000000
0.52999997 0.88000000 5.78000021 1.000000 1.000000
0.52999997 1.12000000 7.75000000 1.000000 1.000000
0.52999997 2.36999989 10.06000042 1.000000 1.000000
0.54000002 1.39999998 2.43000007 1.000000 1.000000
0.54000002 0.93000001 5.59999990 1.000000 1.000000
0.54000002 0.99000001 5.61999989 1.000000 1.000000
0.54000002 0.85000002 5.67000008 1.000000 1.000000
0.54000002 1.08000004 5.73999977 1.000000 1.000000
0.54000002 0.77999997 5.73999977 1.000000 1.000000
0.54000002 1.13999999 7.71000004 1.000000 1.000000
0.54000002 0.99000001 7.78999996 1.000000 1.000000
0.54000002 1.05999994 7.80999994 1.000000 1.000000
0.54000002 0.79000002 7.86999989 1.000000 1.000000
0.54000002 2.39000010 10.89999962 1.000000 1.000000
0.55000001 1.55999994 0.04000000 1.000000 1.000000
0.55000001 1.52999997 1.27999997 1.000000 1.000000
0.55000001 1.49000001 1.70000005 1.000000 1.000000
0.55000001 1.37000000 2.13000011 1.000000 1.000000
0.55000001 0.81000000 5.69999981 1.000000 1.000000
0.55000001 0.98000002 5.76999998 1.000000 1.000000
0.55000001 0.75000000 7.90000010 1.000000 1.000000
0.56000000 1.59000003 0.02000000 1.000000 1.000000
0.56000000 1.61000001 0.03000000 1.000000 1.000000
0.56000000 1.50999999 1.49000001 1.000000 1.000000
0.56000000 1.47000003 1.91999996 1.000000 1.000000
0.56000000 1.40999997 2.17000008 1.000000 1.000000
0.56000000 0.88000000 5.69000006 1.000000 1.000000
0.56000000 0.86000001 5.78000021 1.000000 1.000000
0.56999999 0.94000000 5.69999981 1.000000 1.000000
0.56999999 0.92000002 5.75000000 1.000000 1.000000
0.56999999 1.27999997 7.53999996 1.000000 1.000000
0.56999999 1.15999997 7.59999990 1.000000 1.000000
0.56999999 0.81000000 10.52999973 1.000000 1.000000
0.57999998 1.63999999 0.06000000 1.000000 1.000000
0.57999998 1.39999998 3.32999992 1.000000 1.000000
0.57999998 1.23000002 4.40000010 1.000000 1.000000
0.57999998 1.38999999 4.46999979 1.000000 1.000000
0.57999998 0.76999998 5.71000004 1.000000 1.000000
0.57999998 0.94999999 5.82000017 1.000000 1.000000
0.58999997 1.88000000 0.00000000 1.000000 1.000000
0.58999997 1.42999995 1.78999996 1.000000 1.000000
0.58999997 1.42999995 1.90999997 1.000000 1.000000
0.58999997 1.38000000 5.71999979 1.000000 1.000000
0.58999997 1.27999997 7.63999987 1.000000 1.000000
0.58999997 1.61000001 9.43000031 1.000000 1.000000
0.58999997 2.44000006 9.47999954 1.000000 1.000000
0.58999997 0.80000001 10.34000015 1.000000 1.000000
0.58999997 0.81999999 10.34000015 1.000000 1.000000
0.60000002 1.39999998 2.36999989 1.000000 1.000000
0.60000002 1.36000001 3.16000009 1.000000 1.000000
0.60000002 1.38000000 3.24000001 1.000000 1.000000
0.60000002 1.35000002 4.13999987 1.000000 1.000000
0.60000002 1.07000005 7.82000017 1.000000 1.000000
0.60000002 1.12000000 10.18999958 1.000000 1.000000
0.61000001 1.44000006 3.78999996 1.000000 1.000000
0.61000001 1.38000000 4.80999994 1.000000 1.000000
0.61000001 1.33000004 5.42000008 1.000000 1.000000
0.61000001 1.22000003 5.78000021 1.000000 1.000000
0.61000001 1.09000003 5.78999996 1.000000 1.000000
0.61000001 1.03999996 5.80000019 1.000000 1.000000
0.61000001 0.50999999 9.15999985 1.000000 1.000000
0.61000001 2.11999989 9.73999977 1.000000 1.000000
0.61000001 2.00999999 10.18000031 1.000000 1.000000
0.61000001 2.45000005 10.28999996 1.000000 1.000000
0.61000001 0.95999998 10.52000046 1.000000 1.000000
0.61000001 0.99000001 10.60999966 1.000000 1.000000
0.62000000 1.67999995 0.04000000 1.000000 1.000000
0.62000000 1.34000003 3.98000002 1.000000 1.000000
0.62000000 1.36000001 4.82999992 1.000000 1.000000
0.62000000 1.29999995 7.67000008 1.000000 1.000000
0.62000000 1.04999995 10.65999985 1.000000 1.000000
0.62000000 0.72000003 10.77000046 1.000000 1.000000
0.63000000 1.33000004 4.03000021 1.000000 1.000000
0.63000000 1.42999995 4.03999996 1.000000 1.000000
0.63000000 1.00999999 5.78000021 1.000000 1.000000
0.63000000 1.05999994 6.13999987 1.000000 1.000000
0.63000000 2.31999993 10.02999973 1.000000 1.000000
0.63999999 1.36000001 4.26999998 1.000000 1.000000
0.63999999 1.30999994 7.57999992 1.000000 1.000000
0.63999999 0.51999998 9.17000008 1.000000 1.000000
0.63999999 2.04999995 10.14000034 1.000000 1.000000
0.63999999 2.18000007 10.18999958 1.000000 1.000000
0.63999999 2.50000000 10.22000027 1.000000 1.000000
0.64999998 1.38000000 3.71000004 1.000000 1.000000
0.64999998 1.41999996 4.36999989 1.000000 1.000000
0.64999998 0.81000000 8.06000042 1.000000 1.000000
0.66000003 1.34000003 4.44000006 1.000000 1.000000
0.66000003 1.29999995 5.80000019 1.000000 1.000000
0.66000003 2.52999997 9.43000031 1.000000 1.000000
0.66000003 2.21000004 9.59000015 1.000000 1.000000
0.66000003 2.70000005 10.35000038 1.000000 1.000000
0.66000003 1.25000000 10.68000031 1.000000 1.000000
0.66000003 2.10999990 10.82999992 1.000000 1.000000
0.67000002 1.39999998 3.68000007 1.000000 1.000000
0.67000002 1.41999996 4.67999983 1.000000 1.000000
0.67000002 1.38000000 6.55999994 1.000000 1.000000
0.67000002 1.41999996 9.46000004 1.000000 1.000000
0.67000002 0.56999999 10.47999954 1.000000 1.000000
0.67000002 2.38000011 10.96000004 1.000000 1.000000
0.68000001 1.36000001 6.36000013 1.000000 1.000000
0.68000001 0.33000001 9.39000034 1.000000 1.000000
0.69000000 1.41999996 5.01999998 1.000000 1.000000
0.69000000 1.69000006 7.11000013 1.000000 1.000000
0.69000000 1.38000000 7.65999985 1.000000 1.000000
0.69000000 0.47000000 9.14999962 1.000000 1.000000
0.69000000 0.50999999 9.18000031 1.000000 1.000000
0.69000000 2.54999995 9.47999954 1.000000 1.000000
0.69000000 0.64999998 10.59000015 1.000000 1.000000
0.69999999 1.63000000 7.13000011 1.000000 1.000000
0.69999999 1.38000000 7.38999987 1.000000 1.000000
0.69999999 0.75999999 11.46000004 1.000000 1.000000
0.70999998 1.41999996 5.30000019 1.000000 1.000000
0.70999998 1.20000005 5.88000011 1.000000 1.000000
0.70999998 1.23000002 6.23999977 1.000000 1.000000
0.70999998 1.37000000 6.86000013 1.000000 1.000000
0.70999998 1.67999995 7.13999987 1.000000 1.000000
0.70999998 1.38999999 7.55999994 1.000000 1.000000
0.70999998 2.38000011 9.53999996 1.000000 1.000000
0.70999998 0.72000003 10.30000019 1.000000 1.000000
0.70999998 0.79000002 11.44999981 1.000000 1.000000
0.72000003 1.29999995 5.61000013 1.000000 1.000000
0.72000003 1.33000004 5.94999981 1.000000 1.000000
0.72000003 1.21000004 5.96999979 1.000000 1.000000
0.72000003 0.75000000 9.11999989 1.000000 1.000000
0.72000003 2.64000010 10.32999992 1.000000 1.000000
0.73000002 1.37000000 6.28000021 1.000000 1.000000
0.73000002 1.38999999 6.61000013 1.000000 1.000000
0.73000002 1.41999996 7.19999981 1.000000 1.000000
0.73000002 2.20000005 9.60000038 1.000000 1.000000
0.73000002 0.51999998 10.52000046 1.000000 1.000000
0.74000001 1.39999998 3.42000008 1.000000 1.000000
0.74000001 1.24000001 4.80000019 1.000000 1.000000
0.74000001 1.39999998 5.82000017 1.000000 1.000000
0.74000001 1.55999994 6.86999989 1.000000 1.000000
0.74000001 2.21000004 9.18999958 1.000000 1.000000
0.74000001 0.64999998 9.23999977 1.000000 1.000000
0.74000001 1.78999996 9.89999962 1.000000 1.000000
0.74000001 1.88000000 10.01000023 1.000000 1.000000
0.74000001 0.75000000 11.51000023 1.000000 1.000000
0.75000000 1.29999995 6.23999977 1.000000 1.000000
0.75000000 1.42999995 6.25000000 1.000000 1.000000
0.75000000 1.23000002 6.36999989 1.000000 1.000000
0.75000000 1.39999998 6.51999998 1.000000 1.000000
0.75000000 1.44000006 6.94999981 1.000000 1.000000
0.75000000 1.67999995 7.07999992 1.000000 1.000000
0.75000000 1.47000003 7.19999981 1.000000 1.000000
0.75000000 1.39999998 7.34000015 1.000000 1.000000
0.75000000 1.39999998 7.86000013 1.000000 1.000000
0.75000000 1.34000003 8.00000000 1.000000 1.000000
0.75000000 1.26999998 8.02000046 1.000000 1.000000
0.75000000 0.81999999 9.18000031 1.000000 1.000000
0.75000000 0.46000001 9.19999981 1.000000 1.000000
0.75000000 0.61000001 9.22999954 1.000000 1.000000
0.75000000 2.51999998 9.43999958 1.000000 1.000000
0.75000000 2.43000007 9.48999977 1.000000 1.000000
0.75000000 1.99000001 10.18000031 1.000000 1.000000
0.75000000 0.69000000 10.31000042 1.000000 1.000000
0.75000000 0.62000000 10.34000015 1.000000 1.000000
0.75000000 0.58999997 10.39000034 1.000000 1.000000
0.75000000 0.40000001 10.43999958 1.000000 1.000000
0.75000000 0.56000000 10.46000004 1.000000 1.000000
0.75000000 1.32000005 10.68999958 1.000000 1.000000
0.75999999 1.40999997 6.15999985 1.000000 1.000000
0.75999999 1.37000000 6.80999994 1.000000 1.000000
0.75999999 1.50000000 6.84000015 1.000000 1.000000
0.75999999 1.42999995 7.09999990 1.000000 1.000000
0.75999999 1.45000005 7.98000002 1.000000 1.000000
0.75999999 1.38999999 8.06000042 1.000000 1.000000
0.75999999 0.40000001 9.21000004 1.000000 1.000000
0.75999999 1.07000005 10.22999954 1.000000 1.000000
0.75999999 0.73000002 10.36999989 1.000000 1.000000
0.75999999 0.94000000 10.39000034 1.000000 1.000000
0.75999999 0.44999999 10.44999981 1.000000 1.000000
0.75999999 0.47000000 10.47999954 1.000000 1.000000
0.75999999 0.47999999 10.53999996 1.000000 1.000000
0.76999998 1.33000004 6.09999990 1.000000 1.000000
0.76999998 1.48000002 7.09999990 1.000000 1.000000
0.76999998 1.66999996 7.11999989 1.000000 1.000000
0.76999998 1.45000005 7.36000013 1.000000 1.000000
0.76999998 1.47000003 7.80999994 1.000000 1.000000
0.76999998 0.61000001 9.14000034 1.000000 1.000000
0.76999998 0.88000000 9.22999954 1.000000 1.000000
0.76999998 0.37000000 9.30000019 1.000000 1.000000
0.76999998 0.70999998 10.60000038 1.000000 1.000000
0.76999998 0.58999997 10.64000034 1.000000 1.000000
0.76999998 0.81999999 11.44999981 1.000000 1.000000
0.77999997 1.40999997 6.44000006 1.000000 1.000000
0.77999997 1.46000004 7.86000013 1.000000 1.000000
0.77999997 1.37000000 10.32999992 1.000000 1.000000
0.77999997 0.77999997 10.60000038 1.000000 1.000000
0.79000002 1.30999994 6.51999998 1.000000 1.000000
0.79000002 1.44000006 6.86000013 1.000000 1.000000
0.79000002 1.42999995 7.51999998 1.000000 1.000000
0.79000002 0.30000001 9.18999958 1.000000 1.000000
0.79000002 0.93000001 9.22999954 1.000000 1.000000
0.79000002 0.68000001 9.22999954 1.000000 1.000000
0.79000002 1.89999998 9.97999954 1.000000 1.000000
0.79000002 2.32999992 10.14000034 1.000000 1.000000
0.79000002 0.77999997 11.43999958 1.000000 1.000000
0.80000001 1.37000000 7.55999994 1.000000 1.000000
0.80000001 1.45000005 7.96000004 1.000000 1.000000
0.80000001 1.33000004 8.11999989 1.000000 1.000000
0.80000001 1.41999996 8.14000034 1.000000 1.000000
0.80000001 0.40000001 9.18000031 1.000000 1.000000
0.80000001 0.50000000 9.19999981 1.000000 1.000000
0.80000001 2.21000004 9.46000004 1.000000 1.000000
0.80000001 2.00999999 10.06000042 1.000000 1.000000
0.80000001 0.69000000 11.38000011 1.000000 1.000000
0.80000001 0.75999999 11.39999962 1.000000 1.000000
0.81000000 1.38999999 6.46999979 1.000000 1.000000
0.81000000 1.33000004 6.55999994 1.000000 1.000000
0.81000000 1.32000005 6.88999987 1.000000 1.000000
0.81000000 1.34000003 6.90999985 1.000000 1.000000
0.81000000 1.42999995 8.10000038 1.000000 1.000000
0.81000000 0.75000000 8.98999977 1.000000 1.000000
0.81000000 0.38000000 9.15999985 1.000000 1.000000
0.81000000 0.63999999 9.22000027 1.000000 1.000000
0.81000000 0.89999998 9.23999977 1.000000 1.000000
0.81000000 2.51999998 10.31999969 1.000000 1.000000
0.81999999 1.50000000 7.38000011 1.000000 1.000000
0.81999999 1.38999999 7.84000015 1.000000 1.000000
0.81999999 0.37000000 9.17000008 1.000000 1.000000
0.81999999 1.88999999 11.02999973 1.000000 1.000000
0.82999998 1.13000000 4.80000019 1.000000 1.000000
0.82999998 1.35000002 6.48999977 1.000000 1.000000
0.82999998 1.25999999 6.51999998 1.000000 1.000000
0.82999998 1.32000005 7.13999987 1.000000 1.000000
0.82999998 0.88000000 9.22000027 1.000000 1.000000
0.82999998 0.41999999 9.27999973 1.000000 1.000000
0.82999998 0.87000000 9.35000038 1.000000 1.000000
0.82999998 2.35999990 9.52000046 1.000000 1.000000
0.82999998 1.37000000 9.92000008 1.000000 1.000000
0.82999998 0.75000000 11.39000034 1.000000 1.000000
0.83999997 0.31999999 9.11999989 1.000000 1.000000
0.83999997 0.37000000 9.22000027 1.000000 1.000000
0.83999997 1.80999994 10.18999958 1.000000 1.000000
0.83999997 1.74000001 10.27000046 1.000000 1.000000
0.85000002 1.27999997 7.03000021 1.000000 1.000000
0.85000002 2.44000006 10.27999973 1.000000 1.000000
0.85000002 0.57999998 10.63000011 1.000000 1.000000
0.85000002 0.93000001 10.68999958 1.000000 1.000000
0.85000002 1.09000003 10.72000027 1.000000 1.000000
0.85000002 1.90999997 11.10999966 1.000000 1.000000
0.85000002 1.97000003 11.15999985 1.000000 1.000000
0.85000002 2.02999997 11.18999958 1.000000 1.000000
0.86000001 1.33000004 6.67999983 1.000000 1.000000
0.86000001 1.27999997 7.61999989 1.000000 1.000000
0.86000001 0.33000001 9.25000000 1.000000 1.000000
0.86000001 0.07000000 9.68999958 1.000000 1.000000
0.86000001 0.76999998 10.43000031 1.000000 1.000000
0.86000001 0.54000002 10.48999977 1.000000 1.000000
0.86000001 0.76999998 10.50000000 1.000000 1.000000
0.86000001 0.50000000 10.56999969 1.000000 1.000000
0.86000001 0.61000001 10.61999989 1.000000 1.000000
0.86000001 0.64999998 10.77999973 1.000000 1.000000
0.87000000 1.22000003 7.61999989 1.000000 1.000000
0.87000000 0.68000001 9.09000015 1.000000 1.000000
0.87000000 0.72000003 9.22000027 1.000000 1.000000
0.87000000 0.94000000 9.25000000 1.000000 1.000000
0.87000000 2.18000007 9.57999992 1.000000 1.000000
0.87000000 0.85000002 10.39000034 1.000000 1.000000
0.87000000 0.41999999 10.40999985 1.000000 1.000000
0.87000000 0.68000001 10.43999958 1.000000 1.000000
0.87000000 0.76999998 10.69999981 1.000000 1.000000
0.87000000 1.33000004 10.97000027 1.000000 1.000000
0.87000000 1.13000000 11.85000038 1.000000 1.000000
0.88000000 1.38999999 7.13999987 1.000000 1.000000
0.88000000 0.99000001 9.23999977 1.000000 1.000000
0.88000000 0.92000002 9.89999962 1.000000 1.000000
0.88000000 0.64999998 10.28999996 1.000000 1.000000
0.88000000 0.99000001 10.35999966 1.000000 1.000000
0.88000000 2.09999990 10.36999989 1.000000 1.000000
0.88000000 0.40000001 10.51000023 1.000000 1.000000
0.88000000 1.24000001 10.80000019 1.000000 1.000000
0.88000000 0.75000000 11.39999962 1.000000 1.000000
0.88000000 0.66000003 11.46000004 1.000000 1.000000
0.88999999 0.89999998 5.46000004 1.000000 1.000000
0.88999999 1.25999999 7.57000017 1.000000 1.000000
0.88999999 0.66000003 9.23999977 1.000000 1.000000
0.88999999 0.38999999 9.31999969 1.000000 1.000000
0.88999999 0.58999997 11.43999958 1.000000 1.000000
0.88999999 0.72000003 11.47000027 1.000000 1.000000
0.88999999 1.16999996 11.85000038 1.000000 1.000000
0.89999998 1.00999999 4.90000010 1.000000 1.000000
0.89999998 1.14999998 6.94000006 1.000000 1.000000
0.89999998 0.63999999 9.07999992 1.000000 1.000000
0.89999998 0.86000001 11.55000019 1.000000 1.000000
0.89999998 1.13999999 11.75000000 1.000000 1.000000
0.89999998 1.17999995 11.85999966 1.000000 1.000000
0.91000003 1.19000006 7.09000015 1.000000 1.000000
0.91000003 0.31000000 9.10999966 1.000000 1.000000
0.91000003 1.25000000 9.11999989 1.000000 1.000000
0.91000003 0.47000000 9.27000046 1.000000 1.000000
0.91000003 0.51999998 9.27000046 1.000000 1.000000
0.91000003 0.75999999 10.22999954 1.000000 1.000000
0.91000003 2.40000010 10.31000042 1.000000 1.000000
0.91000003 2.09999990 10.36999989 1.000000 1.000000
0.91000003 0.44000000 10.60000038 1.000000 1.000000
0.91000003 1.15999997 10.71000004 1.000000 1.000000
0.91000003 1.71000004 11.06999969 1.000000 1.000000
0.91000003 2.01999998 11.11999989 1.000000 1.000000
0.91000003 0.66000003 11.47000027 1.000000 1.000000
0.91000003 1.00999999 11.61999989 1.000000 1.000000
0.92000002 0.37000000 9.14999962 1.000000 1.000000
0.92000002 0.47999999 9.22000027 1.000000 1.000000
0.92000002 0.88000000 9.30000019 1.000000 1.000000
0.92000002 2.34999990 9.40999985 1.000000 1.000000
0.92000002 1.23000002 11.86999989 1.000000 1.000000
0.93000001 1.20000005 6.98000002 1.000000 1.000000
0.93000001 1.30999994 9.14999962 1.000000 1.000000
0.93000001 0.36000001 9.22999954 1.000000 1.000000
0.93000001 0.44000000 9.31000042 1.000000 1.000000
0.93000001 0.41999999 9.34000015 1.000000 1.000000
0.93000001 0.60000002 10.43000031 1.000000 1.000000
0.93000001 0.34999999 10.47000027 1.000000 1.000000
0.93000001 0.41000000 10.48999977 1.000000 1.000000
0.93000001 0.50000000 10.48999977 1.000000 1.000000
0.93000001 0.67000002 11.44999981 1.000000 1.000000
0.94000000 1.40999997 6.96999979 1.000000 1.000000
0.94000000 1.09000003 7.65000010 1.000000 1.000000
0.94000000 1.13000000 7.67999983 1.000000 1.000000
0.94000000 0.43000001 9.19999981 1.000000 1.000000
0.94000000 0.47000000 9.22999954 1.000000 1.000000
0.94000000 0.44000000 9.30000019 1.000000 1.000000
0.94000000 0.41999999 9.31000042 1.000000 1.000000
0.94000000 1.00000000 9.90999985 1.000000 1.000000
0.94000000 0.75999999 11.42000008 1.000000 1.000000
0.94000000 0.66000003 11.42000008 1.000000 1.000000
0.94999999 1.08000004 9.10000038 1.000000 1.000000
0.94999999 0.44000000 10.53999996 1.000000 1.000000
0.94999999 0.47999999 10.56999969 1.000000 1.000000
0.94999999 0.75999999 10.57999992 1.000000 1.000000
0.94999999 0.63000000 10.72000027 1.000000 1.000000
0.94999999 1.23000002 10.77999973 1.000000 1.000000
0.94999999 0.69000000 11.39000034 1.000000 1.000000
0.94999999 0.72000003 11.44999981 1.000000 1.000000
0.94999999 1.17999995 11.75000000 1.000000 1.000000
0.95999998 0.82999998 4.88000011 1.000000 1.000000
0.95999998 0.72000003 9.10000038 1.000000 1.000000
0.95999998 0.47999999 9.15999985 1.000000 1.000000
0.95999998 0.38999999 9.25000000 1.000000 1.000000
0.95999998 0.34999999 9.25000000 1.000000 1.000000
0.95999998 2.32999992 9.44999981 1.000000 1.000000
0.95999998 2.22000003 9.46000004 1.000000 1.000000
0.95999998 1.85000002 9.63000011 1.000000 1.000000
0.95999998 1.50000000 10.13000011 1.000000 1.000000
0.95999998 1.34000003 10.14000034 1.000000 1.000000
0.95999998 0.74000001 10.43999958 1.000000 1.000000
0.95999998 0.51999998 10.51000023 1.000000 1.000000
0.95999998 0.79000002 10.69999981 1.000000 1.000000
0.95999998 0.85000002 10.72000027 1.000000 1.000000
0.95999998 1.16999996 11.01000023 1.000000 1.000000
0.95999998 0.66000003 11.42000008 1.000000 1.000000
0.97000003 1.07000005 7.63999987 1.000000 1.000000
0.97000003 0.44999999 9.15999985 1.000000 1.000000
0.97000003 0.37000000 9.23999977 1.000000 1.000000
0.97000003 0.83999997 9.40999985 1.000000 1.000000
0.97000003 2.39000010 10.26000023 1.000000 1.000000
0.97000003 0.89999998 10.76000023 1.000000 1.000000
0.98000002 1.13999999 7.01999998 1.000000 1.000000
0.98000002 0.85000002 7.67999983 1.000000 1.000000
0.98000002 0.66000003 9.10000038 1.000000 1.000000
0.98000002 0.43000001 9.11999989 1.000000 1.000000
0.98000002 0.46000001 9.17000008 1.000000 1.000000
0.98000002 0.38000000 9.31999969 1.000000 1.000000
0.98000002 1.45000005 10.51000023 1.000000 1.000000
0.98000002 1.23000002 10.68999958 1.000000 1.000000
0.98000002 1.16999996 10.76000023 1.000000 1.000000
0.98000002 1.08000004 10.81999969 1.000000 1.000000
0.98000002 1.14999998 10.89999962 1.000000 1.000000
0.98000002 1.32000005 11.93999958 1.000000 1.000000
0.99000001 0.68000001 9.07999992 1.000000 1.000000
0.99000001 0.56999999 9.18000031 1.000000 1.000000
0.99000001 0.38999999 9.21000004 1.000000 1.000000
0.99000001 0.41999999 9.22999954 1.000000 1.000000
0.99000001 0.92000002 9.25000000 1.000000 1.000000
0.99000001 0.40000001 9.27999973 1.000000 1.000000
0.99000001 0.87000000 9.27999973 1.000000 1.000000
0.99000001 0.38999999 9.30000019 1.000000 1.000000
0.99000001 0.93000001 9.38000011 1.000000 1.000000
0.99000001 0.83999997 9.47999954 1.000000 1.000000
0.99000001 0.67000002 11.27000046 1.000000 1.000000
0.99000001 1.10000002 11.81999969 1.000000 1.000000
0.99000001 1.13000000 11.96000004 1.000000 1.000000
1.00000000 1.25000000 7.11999989 1.000000 1.000000
1.00000000 1.25000000 7.59999990 1.000000 1.000000
1.00000000 0.80000001 7.69999981 1.000000 1.000000
1.00000000 0.63999999 9.02000046 1.000000 1.000000
1.00000000 0.75999999 9.06999969 1.000000 1.000000
1.00000000 0.98000002 9.07999992 1.000000 1.000000
1.00000000 0.51999998 9.14999962 1.000000 1.000000
1.00000000 0.85000002 9.15999985 1.000000 1.000000
1.00000000 0.81000000 9.15999985 1.000000 1.000000
1.00000000 0.34999999 9.17000008 1.000000 1.000000
1.00000000 0.72000003 9.18999958 1.000000 1.000000
1.00000000 0.85000002 9.38000011 1.000000 1.000000
1.00000000 2.27999997 10.18999958 1.000000 1.000000
1.00000000 2.40000010 10.22000027 1.000000 1.000000
1.00000000 0.62000000 10.85999966 1.000000 1.000000
1.00000000 1.16999996 10.94999981 1.000000 1.000000
1.00000000 1.14999998 10.97000027 1.000000 1.000000
1.00000000 0.94999999 11.14999962 1.000000 1.000000
1.00000000 0.63999999 11.32999992 1.000000 1.000000
1.00000000 0.85000002 11.44999981 1.000000 1.000000
1.00000000 0.73000002 11.46000004 1.000000 1.000000
1.00000000 1.16999996 11.80000019 1.000000 1.000000
1.00999999 1.53999996 6.61999989 1.000000 1.000000
1.00999999 1.25999999 7.46999979 1.000000 1.000000
1.00999999 0.77999997 7.82999992 1.000000 1.000000
1.00999999 1.16999996 9.07999992 1.000000 1.000000
1.00999999 0.86000001 9.25000000 1.000000 1.000000
1.00999999 0.50000000 9.30000019 1.000000 1.000000
1.00999999 0.58999997 9.38000011 1.000000 1.000000
1.00999999 2.00999999 10.32999992 1.000000 1.000000
1.00999999 2.14000010 10.35999966 1.000000 1.000000
1.00999999 1.55999994 10.75000000 1.000000 1.000000
1.00999999 1.17999995 10.82999992 1.000000 1.000000
1.00999999 1.11000001 11.02000046 1.000000 1.000000
1.00999999 1.12000000 11.06999969 1.000000 1.000000
1.00999999 0.69000000 11.25000000 1.000000 1.000000
1.00999999 1.12000000 11.97999954 1.000000 1.000000
1.01999998 1.12000000 7.03000021 1.000000 1.000000
1.01999998 0.72000003 7.63999987 1.000000 1.000000
1.01999998 1.22000003 7.63999987 1.000000 1.000000
1.01999998 0.75999999 7.67000008 1.000000 1.000000
1.01999998 0.97000003 9.18999958 1.000000 1.000000
1.01999998 2.41000009 10.26000023 1.000000 1.000000
1.01999998 2.07999992 10.38000011 1.000000 1.000000
1.01999998 0.55000001 10.61999989 1.000000 1.000000
1.01999998 0.56999999 11.30000019 1.000000 1.000000
1.01999998 0.72000003 11.42000008 1.000000 1.000000
1.01999998 0.69000000 11.42000008 1.000000 1.000000
1.01999998 1.22000003 11.88000011 1.000000 1.000000
1.02999997 1.33000004 6.92999983 1.000000 1.000000
1.02999997 1.09000003 7.09999990 1.000000 1.000000
1.02999997 1.07000005 7.13000011 1.000000 1.000000
1.02999997 1.12000000 7.67999983 1.000000 1.000000
1.02999997 1.23000002 9.11999989 1.000000 1.000000
1.02999997 1.00999999 9.35000038 1.000000 1.000000
1.02999997 0.92000002 9.42000008 1.000000 1.000000
1.02999997 2.17000008 9.47999954 1.000000 1.000000
1.02999997 2.06999993 10.32999992 1.000000 1.000000
1.02999997 1.13999999 10.84000015 1.000000 1.000000
1.02999997 1.11000001 11.81999969 1.000000 1.000000
1.03999996 1.19000006 7.73999977 1.000000 1.000000
1.03999996 1.00000000 7.84999990 1.000000 1.000000
1.03999996 2.18000007 9.35000038 1.000000 1.000000
1.03999996 0.54000002 9.39999962 1.000000 1.000000
1.03999996 2.47000003 9.44999981 1.000000 1.000000
1.03999996 1.14999998 9.57999992 1.000000 1.000000
1.03999996 0.66000003 11.27999973 1.000000 1.000000
1.03999996 0.64999998 11.30000019 1.000000 1.000000
1.03999996 1.08000004 11.32999992 1.000000 1.000000
1.03999996 0.69999999 11.36999989 1.000000 1.000000
1.03999996 1.15999997 11.80000019 1.000000 1.000000
1.04999995 1.13000000 7.00000000 1.000000 1.000000
1.04999995 0.99000001 7.67999983 1.000000 1.000000
1.04999995 0.61000001 9.15999985 1.000000 1.000000
1.04999995 0.81999999 9.40999985 1.000000 1.000000
1.04999995 0.88999999 9.63000011 1.000000 1.000000
1.04999995 1.04999995 10.89000034 1.000000 1.000000
1.04999995 0.66000003 11.23999977 1.000000 1.000000
1.04999995 0.74000001 11.43000031 1.000000 1.000000
1.04999995 1.00999999 11.67000008 1.000000 1.000000
1.04999995 1.01999998 11.68000031 1.000000 1.000000
1.04999995 1.14999998 11.81000042 1.000000 1.000000
1.04999995 1.13000000 11.94999981 1.000000 1.000000
1.04999995 1.10000002 12.34000015 1.000000 1.000000
1.04999995 1.11000001 12.34000015 1.000000 1.000000
1.05999994 0.98000002 7.63999987 1.000000 1.000000
1.05999994 2.22000003 10.35999966 1.000000 1.000000
1.05999994 1.39999998 10.88000011 1.000000 1.000000
1.05999994 1.24000001 10.89999962 1.000000 1.000000
1.05999994 0.94000000 11.19999981 1.000000 1.000000
1.05999994 1.07000005 11.77999973 1.000000 1.000000
1.05999994 1.28999996 12.01000023 1.000000 1.000000
1.05999994 1.24000001 12.19999981 1.000000 1.000000
1.07000005 1.05999994 5.28000021 1.000000 1.000000
1.07000005 1.08000004 7.03999996 1.000000 1.000000
1.07000005 0.82999998 7.61999989 1.000000 1.000000
1.07000005 0.92000002 7.69000006 1.000000 1.000000
1.07000005 2.14000010 9.43999958 1.000000 1.000000
1.07000005 0.94000000 9.88000011 1.000000 1.000000
1.07000005 1.24000001 10.43000031 1.000000 1.000000
1.07000005 1.24000001 10.93999958 1.000000 1.000000
1.07000005 1.12000000 11.03999996 1.000000 1.000000
1.07000005 1.15999997 11.22999954 1.000000 1.000000
1.07000005 1.08000004 11.42000008 1.000000 1.000000
1.07000005 1.08000004 11.69999981 1.000000 1.000000
1.07000005 1.12000000 11.97000027 1.000000 1.000000
1.07000005 1.25999999 12.27000046 1.000000 1.000000
1.08000004 1.11000001 6.96999979 1.000000 1.000000
1.08000004 1.20000005 7.53000021 1.000000 1.000000
1.08000004 1.11000001 7.61999989 1.000000 1.000000
1.08000004 0.95999998 7.63999987 1.000000 1.000000
1.08000004 1.00000000 7.76000023 1.000000 1.000000
1.08000004 0.56000000 9.18000031 1.000000 1.000000
1.08000004 0.97000003 9.92000008 1.000000 1.000000
1.08000004 0.63000000 10.59000015 1.000000 1.000000
1.08000004 2.02999997 11.17000008 1.000000 1.000000
1.08000004 1.42999995 11.25000000 1.000000 1.000000
1.08000004 0.72000003 11.43999958 1.000000 1.000000
1.08000004 1.08000004 11.81000042 1.000000 1.000000
1.08000004 1.25999999 11.85000038 1.000000 1.000000
1.08000004 1.20000005 11.85000038 1.000000 1.000000
1.08000004 1.26999998 12.22000027 1.000000 1.000000
1.08000004 1.37000000 12.53999996 1.000000 1.000000
1.09000003 2.18000007 9.31000042 1.000000 1.000000
1.09000003 0.89999998 9.34000015 1.000000 1.000000
1.09000003 2.30999994 9.42000008 1.000000 1.000000
1.09000003 2.36999989 10.31000042 1.000000 1.000000
1.09000003 0.66000003 11.28999996 1.000000 1.000000
1.09000003 0.60000002 11.39999962 1.000000 1.000000
1.09000003 0.82999998 11.42000008 1.000000 1.000000
1.09000003 0.70999998 11.43000031 1.000000 1.000000
1.09000003 0.85000002 11.50000000 1.000000 1.000000
1.09000003 1.04999995 11.71000004 1.000000 1.000000
1.09000003 0.97000003 11.72000027 1.000000 1.000000
1.09000003 1.11000001 11.76000023 1.000000 1.000000
1.09000003 1.41999996 12.00000000 1.000000 1.000000
1.09000003 1.13000000 12.00000000 1.000000 1.000000
1.10000002 0.76999998 4.92000008 1.000000 1.000000
1.10000002 1.00999999 7.65999985 1.000000 1.000000
1.10000002 0.50000000 9.15999985 1.000000 1.000000
1.10000002 1.22000003 10.30000019 1.000000 1.000000
1.10000002 1.22000003 10.93999958 1.000000 1.000000
1.10000002 1.50999999 11.06999969 1.000000 1.000000
1.10000002 0.73000002 11.34000015 1.000000 1.000000
1.10000002 0.70999998 11.39000034 1.000000 1.000000
1.10000002 1.07000005 11.39999962 1.000000 1.000000
1.10000002 1.02999997 11.80000019 1.000000 1.000000
1.10000002 1.39999998 12.06999969 1.000000 1.000000
1.10000002 1.25999999 12.19999981 1.000000 1.000000
1.11000001 0.98000002 7.61999989 1.000000 1.000000
1.11000001 0.99000001 7.63999987 1.000000 1.000000
1.11000001 1.03999996 9.23999977 1.000000 1.000000
1.11000001 0.80000001 9.84000015 1.000000 1.000000
1.11000001 2.06999993 10.38000011 1.000000 1.000000
1.11000001 0.37000000 10.52000046 1.000000 1.000000
1.11000001 1.24000001 10.86999989 1.000000 1.000000
1.11000001 1.38999999 10.96000004 1.000000 1.000000
1.11000001 0.61000001 11.15999985 1.000000 1.000000
1.11000001 0.85000002 11.52000046 1.000000 1.000000
1.11000001 1.25999999 12.19999981 1.000000 1.000000
1.11000001 1.15999997 12.27999973 1.000000 1.000000
1.12000000 1.03999996 7.09999990 1.000000 1.000000
1.12000000 1.11000001 7.55000019 1.000000 1.000000
1.12000000 1.17999995 9.14999962 1.000000 1.000000
1.12000000 0.75999999 9.21000004 1.000000 1.000000
1.12000000 0.58999997 10.50000000 1.000000 1.000000
1.12000000 0.46000001 10.52999973 1.000000 1.000000
1.12000000 0.56999999 10.56999969 1.000000 1.000000
1.12000000 0.50000000 10.59000015 1.000000 1.000000
1.12000000 1.00000000 11.02000046 1.000000 1.000000
1.12000000 0.55000001 11.31000042 1.000000 1.000000
1.12000000 1.00000000 11.38000011 1.000000 1.000000
1.12000000 1.57000005 12.11999989 1.000000 1.000000
1.12000000 1.37000000 12.31000042 1.000000 1.000000
1.12000000 1.48000002 12.34000015 1.000000 1.000000
1.13000000 1.24000001 10.40999985 1.000000 1.000000
1.13000000 0.83999997 10.53999996 1.000000 1.000000
1.13000000 0.75999999 10.68000031 1.000000 1.000000
1.13000000 1.62000000 10.85000038 1.000000 1.000000
1.13000000 1.23000002 10.89999962 1.000000 1.000000
1.13000000 1.35000002 11.34000015 1.000000 1.000000
1.13000000 1.14999998 11.82999992 1.000000 1.000000
1.13000000 1.38000000 11.94999981 1.000000 1.000000
1.13000000 1.11000001 12.22000027 1.000000 1.000000
1.13000000 1.38000000 12.47000027 1.000000 1.000000
1.13999999 0.62000000 9.21000004 1.000000 1.000000
1.13999999 0.67000002 9.22999954 1.000000 1.000000
1.13999999 0.98000002 9.84000015 1.000000 1.000000
1.13999999 1.16999996 10.35999966 1.000000 1.000000
1.13999999 1.38999999 10.89999962 1.000000 1.000000
1.13999999 0.69999999 11.35000038 1.000000 1.000000
1.13999999 1.13000000 11.85999966 1.000000 1.000000
1.13999999 1.38000000 12.64000034 1.000000 1.000000
1.14999998 0.58999997 9.18000031 1.000000 1.000000
1.14999998 2.45000005 9.47000027 1.000000 1.000000
1.14999998 1.15999997 10.51000023 1.000000 1.000000
1.14999998 1.37000000 11.05000019 1.000000 1.000000
1.14999998 0.63999999 11.31999969 1.000000 1.000000
1.14999998 1.17999995 11.34000015 1.000000 1.000000
1.14999998 0.63000000 11.35000038 1.000000 1.000000
1.14999998 0.94999999 11.47999954 1.000000 1.000000
1.14999998 0.94999999 11.82999992 1.000000 1.000000
1.14999998 1.11000001 12.10999966 1.000000 1.000000
1.14999998 1.28999996 12.26000023 1.000000 1.000000
1.14999998 1.40999997 12.28999996 1.000000 1.000000
1.14999998 1.08000004 12.32999992 1.000000 1.000000
1.15999997 1.00999999 7.15000010 1.000000 1.000000
1.15999997 0.91000003 7.69000006 1.000000 1.000000
1.15999997 2.21000004 10.27999973 1.000000 1.000000
1.15999997 1.65999997 11.18000031 1.000000 1.000000
1.15999997 1.05999994 11.39999962 1.000000 1.000000
1.15999997 0.81999999 11.52999973 1.000000 1.000000
1.15999997 0.99000001 11.60999966 1.000000 1.000000
1.15999997 1.35000002 12.51000023 1.000000 1.000000
1.16999996 1.00000000 7.69000006 1.000000 1.000000
1.16999996 2.18000007 9.35999966 1.000000 1.000000
1.16999996 1.17999995 10.57999992 1.000000 1.000000
1.16999996 1.28999996 10.89000034 1.000000 1.000000
1.16999996 0.73000002 11.36999989 1.000000 1.000000
1.16999996 1.17999995 11.39000034 1.000000 1.000000
1.16999996 0.98000002 11.47999954 1.000000 1.000000
1.16999996 0.72000003 11.50000000 1.000000 1.000000
1.16999996 1.07000005 11.75000000 1.000000 1.000000
1.16999996 1.32000005 12.34000015 1.000000 1.000000
1.16999996 1.36000001 12.46000004 1.000000 1.000000
1.16999996 1.28999996 12.55000019 1.000000 1.000000
1.17999995 1.04999995 7.11999989 1.000000 1.000000
1.17999995 1.03999996 7.80999994 1.000000 1.000000
1.17999995 2.30999994 9.43999958 1.000000 1.000000
1.17999995 2.44000006 9.48999977 1.000000 1.000000
1.17999995 2.44000006 9.51000023 1.000000 1.000000
1.17999995 0.69999999 9.90999985 1.000000 1.000000
1.17999995 1.08000004 9.92000008 1.000000 1.000000
1.17999995 0.70999998 10.71000004 1.000000 1.000000
1.17999995 0.66000003 11.23999977 1.000000 1.000000
1.17999995 0.72000003 11.27999973 1.000000 1.000000
1.17999995 0.55000001 11.31999969 1.000000 1.000000
1.17999995 0.81999999 11.46000004 1.000000 1.000000
1.17999995 0.81999999 11.47000027 1.000000 1.000000
1.17999995 1.00999999 11.82999992 1.000000 1.000000
1.17999995 1.48000002 12.22999954 1.000000 1.000000
1.19000006 1.02999997 7.76000023 1.000000 1.000000
1.19000006 0.69999999 9.72999954 1.000000 1.000000
1.19000006 0.60000002 11.27999973 1.000000 1.000000
1.19000006 0.74000001 11.39999962 1.000000 1.000000
1.19000006 0.83999997 11.44999981 1.000000 1.000000
1.19000006 1.07000005 11.68000031 1.000000 1.000000
1.19000006 1.20000005 12.02000046 1.000000 1.000000
1.20000005 0.67000002 9.18999958 1.000000 1.000000
1.20000005 0.76999998 9.19999981 1.000000 1.000000
1.20000005 0.75000000 9.21000004 1.000000 1.000000
1.20000005 1.13000000 10.56000042 1.000000 1.000000
1.20000005 0.63999999 11.26000023 1.000000 1.000000
1.20000005 1.34000003 11.26000023 1.000000 1.000000
1.20000005 1.77999997 11.32999992 1.000000 1.000000
1.20000005 0.63000000 11.32999992 1.000000 1.000000
1.20000005 0.70999998 11.35999966 1.000000 1.000000
1.20000005 1.02999997 11.39999962 1.000000 1.000000
1.20000005 0.79000002 11.43999958 1.000000 1.000000
1.20000005 0.83999997 11.48999977 1.000000 1.000000
1.20000005 0.82999998 11.52999973 1.000000 1.000000
1.20000005 0.95999998 11.56999969 1.000000 1.000000
1.20000005 0.97000003 11.60000038 1.000000 1.000000
1.20000005 1.38000000 12.05000019 1.000000 1.000000
1.21000004 1.01999998 7.13999987 1.000000 1.000000
1.21000004 0.97000003 7.71000004 1.000000 1.000000
1.21000004 1.07000005 9.21000004 1.000000 1.000000
1.21000004 1.37000000 10.89000034 1.000000 1.000000
1.21000004 1.78999996 11.17000008 1.000000 1.000000
1.21000004 0.63999999 11.31000042 1.000000 1.000000
1.21000004 0.69000000 11.32999992 1.000000 1.000000
1.21000004 1.63000000 11.39000034 1.000000 1.000000
1.21000004 0.89999998 11.43000031 1.000000 1.000000
1.21000004 0.93000001 11.46000004 1.000000 1.000000
1.21000004 0.92000002 11.51000023 1.000000 1.000000
1.21000004 0.82999998 11.52000046 1.000000 1.000000
1.21000004 1.02999997 11.80000019 1.000000 1.000000
1.22000003 0.47999999 9.18999958 1.000000 1.000000
1.22000003 0.91000003 9.19999981 1.000000 1.000000
1.22000003 0.52999997 9.22999954 1.000000 1.000000
1.22000003 2.35999990 10.28999996 1.000000 1.000000
1.22000003 0.62000000 11.31000042 1.000000 1.000000
1.22000003 1.55999994 11.35000038 1.000000 1.000000
1.22000003 0.91000003 11.43000031 1.000000 1.000000
1.22000003 0.93000001 11.48999977 1.000000 1.000000
1.22000003 0.98000002 11.77999973 1.000000 1.000000
1.22000003 0.94000000 11.81999969 1.000000 1.000000
1.22000003 1.24000001 11.85000038 1.000000 1.000000
1.22000003 1.37000000 12.10999966 1.000000 1.000000
1.23000002 0.61000001 9.19999981 1.000000 1.000000
1.23000002 0.68000001 9.60000038 1.000000 1.000000
1.23000002 0.98000002 9.93000031 1.000000 1.000000
1.23000002 0.72000003 11.32999992 1.000000 1.000000
1.23000002 2.23000002 11.39999962 1.000000 1.000000
1.23000002 0.86000001 11.51000023 1.000000 1.000000
1.23000002 1.11000001 11.71000004 1.000000 1.000000
1.23000002 1.16999996 11.77000046 1.000000 1.000000
1.23000002 1.05999994 11.78999996 1.000000 1.000000
1.23000002 1.00000000 11.85000038 1.000000 1.000000
1.23000002 1.11000001 11.98999977 1.000000 1.000000
1.24000001 0.88999999 9.15999985 1.000000 1.000000
1.24000001 0.80000001 9.31999969 1.000000 1.000000
1.24000001 0.99000001 9.96000004 1.000000 1.000000
1.24000001 1.04999995 10.69999981 1.000000 1.000000
1.24000001 1.44000006 11.44999981 1.000000 1.000000
1.24000001 0.87000000 11.52000046 1.000000 1.000000
1.24000001 1.00000000 11.72000027 1.000000 1.000000
1.24000001 1.13999999 11.81999969 1.000000 1.000000
1.24000001 1.38999999 12.02000046 1.000000 1.000000
1.25000000 1.00000000 7.17999983 1.000000 1.000000
1.25000000 0.56999999 9.15999985 1.000000 1.000000
1.25000000 0.75000000 10.72000027 1.000000 1.000000
1.25000000 1.63000000 11.46000004 1.000000 1.000000
1.25000000 0.81999999 11.50000000 1.000000 1.000000
1.25000000 0.80000001 11.52000046 1.000000 1.000000
1.25000000 1.15999997 11.60999966 1.000000 1.000000
1.25000000 0.98000002 11.75000000 1.000000 1.000000
1.25000000 1.25999999 11.81999969 1.000000 1.000000
1.25000000 1.19000006 11.84000015 1.000000 1.000000
1.25000000 1.25000000 12.06000042 1.000000 1.000000
1.25000000 1.35000002 12.39000034 1.000000 1.000000
1.25999999 0.69000000 9.06000042 1.000000 1.000000
1.25999999 2.43000007 9.47999954 1.000000 1.000000
1.25999999 0.81999999 9.96000004 1.000000 1.000000
1.25999999 0.93000001 9.98999977 1.000000 1.000000
1.25999999 0.95999998 10.07999992 1.000000 1.000000
1.25999999 0.76999998 10.52999973 1.000000 1.000000
1.25999999 1.55999994 11.22999954 1.000000 1.000000
1.25999999 1.64999998 11.27000046 1.000000 1.000000
1.25999999 0.98000002 11.39000034 1.000000 1.000000
1.25999999 0.88000000 11.46000004 1.000000 1.000000
1.25999999 1.32000005 11.46000004 1.000000 1.000000
1.25999999 0.72000003 11.47999954 1.000000 1.000000
1.25999999 0.89999998 11.48999977 1.000000 1.000000
1.25999999 1.34000003 11.97000027 1.000000 1.000000
1.25999999 1.25000000 12.01000023 1.000000 1.000000
1.26999998 0.83999997 9.14000034 1.000000 1.000000
1.26999998 0.75999999 10.51000023 1.000000 1.000000
1.26999998 0.75000000 10.63000011 1.000000 1.000000
1.26999998 0.69000000 11.34000015 1.000000 1.000000
1.26999998 0.81000000 11.42000008 1.000000 1.000000
1.26999998 0.80000001 11.47000027 1.000000 1.000000
1.26999998 0.81000000 11.48999977 1.000000 1.000000
1.26999998 0.77999997 11.50000000 1.000000 1.000000
1.26999998 0.95999998 11.52000046 1.000000 1.000000
1.26999998 0.93000001 11.52999973 1.000000 1.000000
1.26999998 1.01999998 11.71000004 1.000000 1.000000
1.26999998 1.01999998 11.71000004 1.000000 1.000000
1.26999998 0.94999999 11.76000023 1.000000 1.000000
1.26999998 0.93000001 11.81000042 1.000000 1.000000
1.27999997 0.66000003 9.14999962 1.000000 1.000000
1.27999997 0.83999997 10.77000046 1.000000 1.000000
1.27999997 1.92999995 11.22000027 1.000000 1.000000
1.27999997 0.94000000 11.40999985 1.000000 1.000000
1.27999997 0.81999999 11.47999954 1.000000 1.000000
1.27999997 0.81999999 11.50000000 1.000000 1.000000
1.27999997 0.81999999 11.50000000 1.000000 1.000000
1.27999997 0.89999998 11.61999989 1.000000 1.000000
1.27999997 0.94999999 11.77999973 1.000000 1.000000
1.27999997 0.95999998 11.77999973 1.000000 1.000000
1.27999997 0.97000003 11.80000019 1.000000 1.000000
1.27999997 1.19000006 12.14999962 1.000000 1.000000
1.27999997 1.30999994 12.22000027 1.000000 1.000000
1.28999996 0.82999998 9.10999966 1.000000 1.000000
1.28999996 0.51999998 9.18000031 1.000000 1.000000
1.28999996 0.73000002 9.18999958 1.000000 1.000000
1.28999996 0.75000000 10.72000027 1.000000 1.000000
1.28999996 1.77999997 11.06999969 1.000000 1.000000
1.28999996 1.15999997 11.21000004 1.000000 1.000000
1.28999996 0.62000000 11.21000004 1.000000 1.000000
1.28999996 0.62000000 11.28999996 1.000000 1.000000
1.28999996 0.69000000 11.34000015 1.000000 1.000000
1.28999996 1.25999999 12.01000023 1.000000 1.000000
1.28999996 1.30999994 12.38000011 1.000000 1.000000
1.29999995 0.81000000 9.10000038 1.000000 1.000000
1.29999995 2.42000008 9.43000031 1.000000 1.000000
1.29999995 0.75999999 10.44999981 1.000000 1.000000
1.29999995 0.37000000 10.47000027 1.000000 1.000000
1.29999995 0.69000000 10.56000042 1.000000 1.000000
1.29999995 0.58999997 10.61999989 1.000000 1.000000
1.29999995 0.77999997 10.63000011 1.000000 1.000000
1.29999995 0.86000001 10.84000015 1.000000 1.000000
1.29999995 0.95999998 11.47000027 1.000000 1.000000
1.29999995 1.04999995 11.78999996 1.000000 1.000000
1.29999995 1.38000000 11.92000008 1.000000 1.000000
1.29999995 1.36000001 12.43999958 1.000000 1.000000
1.30999994 0.46000001 9.18000031 1.000000 1.000000
1.30999994 0.82999998 10.14000034 1.000000 1.000000
1.30999994 0.79000002 10.53999996 1.000000 1.000000
1.30999994 1.21000004 10.85000038 1.000000 1.000000
1.30999994 0.56999999 11.06999969 1.000000 1.000000
1.30999994 0.56000000 11.31999969 1.000000 1.000000
1.30999994 0.77999997 11.35999966 1.000000 1.000000
1.30999994 0.81000000 11.35999966 1.000000 1.000000
1.30999994 0.82999998 11.43000031 1.000000 1.000000
1.30999994 1.00999999 11.57999992 1.000000 1.000000
1.30999994 1.10000002 11.94999981 1.000000 1.000000
1.30999994 1.07000005 11.94999981 1.000000 1.000000
1.32000005 0.76999998 10.47999954 1.000000 1.000000
1.32000005 0.69000000 10.50000000 1.000000 1.000000
1.32000005 2.01999998 10.53999996 1.000000 1.000000
1.32000005 0.68000001 10.53999996 1.000000 1.000000
1.32000005 0.85000002 10.60999966 1.000000 1.000000
1.32000005 0.68000001 10.63000011 1.000000 1.000000
1.32000005 0.56000000 10.71000004 1.000000 1.000000
1.32000005 0.88999999 10.81000042 1.000000 1.000000
1.32000005 0.60000002 11.28999996 1.000000 1.000000
1.32000005 0.83999997 11.52999973 1.000000 1.000000
1.32000005 0.86000001 11.55000019 1.000000 1.000000
1.32000005 0.94999999 11.68000031 1.000000 1.000000
1.32000005 1.24000001 12.18999958 1.000000 1.000000
1.33000004 0.88999999 9.22999954 1.000000 1.000000
1.33000004 0.81999999 10.71000004 1.000000 1.000000
1.33000004 0.85000002 10.77999973 1.000000 1.000000
1.33000004 0.56999999 10.78999996 1.000000 1.000000
1.33000004 1.62000000 11.34000015 1.000000 1.000000
1.33000004 1.29999995 11.42000008 1.000000 1.000000
1.33000004 0.81999999 11.43999958 1.000000 1.000000
1.33000004 0.79000002 11.61999989 1.000000 1.000000
1.33000004 1.34000003 12.01000023 1.000000 1.000000
1.34000003 0.82999998 10.06000042 1.000000 1.000000
1.34000003 0.57999998 10.64999962 1.000000 1.000000
1.34000003 1.33000004 11.84000015 1.000000 1.000000
1.35000002 0.99000001 7.17999983 1.000000 1.000000
1.35000002 0.82999998 9.10999966 1.000000 1.000000
1.35000002 0.87000000 9.18999958 1.000000 1.000000
1.35000002 2.42000008 9.47999954 1.000000 1.000000
1.35000002 1.17999995 11.03999996 1.000000 1.000000
1.35000002 0.67000002 11.34000015 1.000000 1.000000
1.35000002 0.88000000 11.53999996 1.000000 1.000000
1.35000002 1.01999998 11.56999969 1.000000 1.000000
1.36000001 0.75000000 10.47999954 1.000000 1.000000
1.36000001 0.64999998 10.80000019 1.000000 1.000000
1.36000001 0.86000001 10.80000019 1.000000 1.000000
1.36000001 0.63999999 10.82999992 1.000000 1.000000
1.36000001 1.26999998 10.97000027 1.000000 1.000000
1.36000001 0.69999999 11.34000015 1.000000 1.000000
1.36000001 0.82999998 11.35999966 1.000000 1.000000
1.36000001 0.94999999 11.57999992 1.000000 1.000000
1.36000001 1.11000001 11.89999962 1.000000 1.000000
1.36000001 1.24000001 12.02999973 1.000000 1.000000
